-1.214644908905029297e-01 5.667773485183715820e-01 1.041925475001335144e-01
9.709239751100540161e-02 -2.381751984357833862e-01 5.243139266967773438e-01
2.716318964958190918e-01 4.733279943466186523e-01 2.547475993633270264e-01
3.394172489643096924e-01 1.397275179624557495e-01 4.563926756381988525e-01
5.747860670089721680e-01 -4.236694425344467163e-02 2.368391305208206177e-01
9.450249373912811279e-02 -5.841881632804870605e-01 -1.195085123181343079e-01
6.379700899124145508e-01 3.533565998077392578e-02 -1.578910090029239655e-02
-8.442013710737228394e-02 -4.082230925559997559e-01 4.457734525203704834e-01
4.258433580398559570e-01 -3.970596790313720703e-01 -1.446614265441894531e-01
3.781262934207916260e-01 -2.286864370107650757e-01 -3.803446590900421143e-01
-2.682384550571441650e-01 7.175362110137939453e-02 5.058508515357971191e-01
-3.954560682177543640e-02 5.972045063972473145e-01 -3.891696780920028687e-02
-7.071501761674880981e-02 5.925715565681457520e-01 -2.921738661825656891e-03
-4.554293677210807800e-02 -4.947205483913421631e-01 -3.192621767520904541e-01
1.176295876502990723e-01 5.040292739868164062e-01 2.767801582813262939e-01
4.228665232658386230e-01 -2.474030554294586182e-01 -3.286322057247161865e-01
3.791294991970062256e-01 -5.940414220094680786e-02 -4.424575865268707275e-01
-8.243025839328765869e-02 -1.377751529216766357e-01 5.562360882759094238e-01
1.565447598695755005e-01 5.843999981880187988e-01 6.392677873373031616e-02
-5.259327888488769531e-01 -3.027568757534027100e-02 3.362664580345153809e-01
2.190823554992675781e-01 5.253363251686096191e-01 1.992218196392059326e-01
-2.882896065711975098e-01 -4.609233736991882324e-01 3.351795971393585205e-01
5.741923451423645020e-01 2.651770710945129395e-01 -1.248525604605674744e-01
1.557675600051879883e-01 3.363865613937377930e-01 4.362446367740631104e-01
3.605243563652038574e-01 -4.802167415618896484e-01 9.531366080045700073e-02
-5.375602841377258301e-01 2.091140449047088623e-01 -2.173830270767211914e-01
1.897389590740203857e-01 4.870571792125701904e-01 -3.183504641056060791e-01
1.556696295738220215e-01 2.099812775850296021e-01 5.028397440910339355e-01
-5.040447711944580078e-01 -4.262991249561309814e-01 7.169302552938461304e-02
-1.446814388036727905e-01 5.071292519569396973e-01 -2.774229943752288818e-01
-4.317504763603210449e-01 -4.557956457138061523e-01 -1.501412838697433472e-01
2.836025059223175049e-01 4.321002662181854248e-01 -3.365244567394256592e-01
-5.289316773414611816e-01 -1.496427953243255615e-01 3.238385617733001709e-01
-1.685878038406372070e-01 4.301527887582778931e-02 5.425848364830017090e-01
3.206133246421813965e-01 6.872939877212047577e-03 4.866769313812255859e-01
4.262688457965850830e-01 -3.368798177689313889e-03 -4.161127805709838867e-01
-3.899753391742706299e-01 -2.921546995639801025e-01 4.012813568115234375e-01
3.888548314571380615e-01 2.439029663801193237e-01 3.835184872150421143e-01
-5.791127681732177734e-01 1.218229308724403381e-01 1.995427012443542480e-01
-5.074464082717895508e-01 -2.297066450119018555e-01 -2.944944798946380615e-01
5.938705801963806152e-01 2.426071912050247192e-01 -7.541819661855697632e-02
4.591354429721832275e-01 4.255278408527374268e-01 9.826032817363739014e-02
-3.155604004859924316e-01 4.549894034862518311e-01 -2.229367196559906006e-01
4.112604632973670959e-02 5.789485573768615723e-01 1.305183768272399902e-01
9.361545741558074951e-02 -5.675377845764160156e-01 -1.682953089475631714e-01
-5.573924183845520020e-01 -2.755926549434661865e-01 2.154028862714767456e-01
-4.354584962129592896e-02 3.992730677127838135e-01 3.994129002094268799e-01
-4.865164682269096375e-02 -2.358837723731994629e-01 -5.101910829544067383e-01
-1.454495042562484741e-01 -3.191116452217102051e-01 -4.584535062313079834e-01
3.097523935139179230e-02 2.531917989253997803e-01 -5.175309777259826660e-01
-9.264515712857246399e-03 -6.135318279266357422e-01 -5.376929789781570435e-02
5.978451296687126160e-02 -2.748186886310577393e-01 5.162987112998962402e-01
-4.766019582748413086e-01 2.370672821998596191e-01 2.776684761047363281e-01
-5.607526376843452454e-02 3.266777098178863525e-01 -4.778327345848083496e-01
-3.273729681968688965e-01 2.284848093986511230e-01 4.176806807518005371e-01
-3.180965781211853027e-01 -5.388708114624023438e-01 -1.244038715958595276e-01
1.257089972496032715e-01 -5.036258101463317871e-01 3.216906487941741943e-01
-4.679991304874420166e-01 1.292919218540191650e-01 -3.607933223247528076e-01
1.974822953343391418e-04 4.899829626083374023e-01 3.046082258224487305e-01
-1.016868799924850464e-01 1.734301298856735229e-01 5.236642956733703613e-01
3.941025435924530029e-01 4.698174297809600830e-01 -1.644782871007919312e-01
-4.125926494598388672e-01 -2.062556892633438110e-01 -3.951827883720397949e-01
-2.557445466518402100e-01 9.280110150575637817e-02 5.060123205184936523e-01
9.848499670624732971e-03 2.479134351015090942e-01 -5.197117924690246582e-01
2.302875518798828125e-01 -4.493408501148223877e-01 -2.911729216575622559e-01
-3.108980953693389893e-01 -4.572237432003021240e-01 -2.782299220561981201e-01
5.226417183876037598e-01 2.142452597618103027e-01 2.628437876701354980e-01
4.405375942587852478e-02 5.970309376716613770e-01 -9.739106148481369019e-02
-2.892169356346130371e-01 -2.533677816390991211e-01 -4.471752941608428955e-01
-3.510951995849609375e-01 4.097049832344055176e-01 -2.567142248153686523e-01
-6.853911094367504120e-03 2.966785430908203125e-01 4.763692915439605713e-01
-2.645468413829803467e-01 4.249252676963806152e-01 2.868359088897705078e-01
-3.672674000263214111e-01 -5.358095765113830566e-01 -2.812753990292549133e-02
-4.988973438739776611e-01 -4.177136719226837158e-01 -8.583830296993255615e-02
5.212016701698303223e-01 -3.196341395378112793e-01 -3.743652999401092529e-02
-4.299955368041992188e-01 1.395809054374694824e-01 3.874300420284271240e-01
-4.673946797847747803e-01 2.326127737760543823e-01 2.932035028934478760e-01
1.394291073083877563e-01 -3.014039099216461182e-01 4.880781471729278564e-01
-5.701521635055541992e-01 1.015163362026214600e-01 -2.328570485115051270e-01
-4.924256503582000732e-01 -3.835333883762359619e-01 2.129855006933212280e-01
4.103913307189941406e-01 -2.729968428611755371e-01 3.480984568595886230e-01
9.352602064609527588e-02 5.035825446248054504e-02 5.542191863059997559e-01
-5.279614329338073730e-01 -3.874482810497283936e-01 -7.250756770372390747e-02
5.370903387665748596e-02 5.717557668685913086e-01 -1.981769353151321411e-01
-8.189783990383148193e-02 5.277893543243408203e-01 -2.696019113063812256e-01
-8.740540593862533569e-03 -1.632810533046722412e-01 5.547038316726684570e-01
5.962088108062744141e-01 -1.846187412738800049e-01 2.084198221564292908e-02
-4.710009992122650146e-01 3.268147110939025879e-01 1.779864430427551270e-01
3.518252670764923096e-01 4.552641510963439941e-01 2.143109738826751709e-01
-3.569677472114562988e-01 -5.306721925735473633e-01 1.380620747804641724e-01
3.479555249214172363e-01 -3.342208266258239746e-01 3.593862652778625488e-01
1.660308390855789185e-01 4.613074958324432373e-01 3.208209276199340820e-01
2.999366223812103271e-01 1.633142381906509399e-01 4.698178172111511230e-01
1.784245669841766357e-01 -5.744749903678894043e-01 -5.842805653810501099e-02
5.752316117286682129e-01 1.630558446049690247e-02 -2.427948862314224243e-01
-2.494960427284240723e-01 -5.364778637886047363e-01 -1.972904801368713379e-01
-4.596486985683441162e-01 -1.012869626283645630e-01 -3.872943222522735596e-01
1.851662397384643555e-01 -4.059579372406005859e-01 -3.634301126003265381e-01
-5.235410332679748535e-01 1.917831599712371826e-01 -2.574523687362670898e-01
-4.032820165157318115e-01 4.252536296844482422e-01 1.031313464045524597e-01
6.189860105514526367e-01 1.598640978336334229e-01 -7.737112790346145630e-02
2.933755218982696533e-01 -4.659237265586853027e-01 -2.130511701107025146e-01
-3.046070933341979980e-01 -5.691112279891967773e-01 6.570646911859512329e-02
5.103725194931030273e-01 -1.710199564695358276e-01 -2.754347622394561768e-01
-4.950618147850036621e-01 2.578857839107513428e-01 -2.452627271413803101e-01
-6.007481217384338379e-01 -2.592203617095947266e-01 -7.884404808282852173e-02
-1.076535359025001526e-01 3.461825847625732422e-01 4.313250780105590820e-01
3.372129201889038086e-01 -5.021032691001892090e-01 1.113772043026983738e-03
-2.913130521774291992e-01 3.192207217216491699e-01 -3.999095857143402100e-01
-2.738927602767944336e-01 -1.940524205565452576e-03 -5.083656907081604004e-01
-4.643302857875823975e-01 -1.954208016395568848e-01 -3.564005792140960693e-01
-5.583892464637756348e-01 1.321560144424438477e-01 -2.378353327512741089e-01
-2.977757342159748077e-02 -6.008833646774291992e-01 1.728206276893615723e-01
4.354836642742156982e-01 1.487638056278228760e-01 -3.985639810562133789e-01
-1.369883567094802856e-01 -4.761871695518493652e-01 3.782623410224914551e-01
5.707245469093322754e-01 2.635328769683837891e-01 -1.397465169429779053e-01
-2.943384349346160889e-01 5.759192258119583130e-02 -4.964371621608734131e-01
-2.582957446575164795e-01 6.401500105857849121e-02 5.113679170608520508e-01
-3.730866611003875732e-01 2.558870911598205566e-01 3.685568273067474365e-01
1.206641271710395813e-01 4.057583212852478027e-01 -4.212121069431304932e-01
-3.183814585208892822e-01 -3.933331072330474854e-01 3.818934857845306396e-01
1.881295740604400635e-01 5.856804847717285156e-01 -2.159246616065502167e-02
5.517607554793357849e-02 -5.018461942672729492e-01 3.476035296916961670e-01
6.289188265800476074e-01 -5.582724511623382568e-02 -4.398762434720993042e-02
-7.180041074752807617e-02 -6.090860366821289062e-01 -8.243803679943084717e-02
-3.600898198783397675e-04 2.884489670395851135e-02 -5.612757205963134766e-01
2.430359125137329102e-01 -3.943090438842773438e-01 -3.451411128044128418e-01
2.614847123622894287e-01 -2.004715353250503540e-01 -4.645490944385528564e-01
3.723652958869934082e-01 4.988994002342224121e-01 -1.187213808298110962e-01
-3.120711743831634521e-01 2.768388763070106506e-02 -4.904917776584625244e-01
3.551786243915557861e-01 -3.284773826599121094e-01 -3.265279233455657959e-01
4.002177715301513672e-02 -1.101428084075450897e-02 -5.593318939208984375e-01
-5.526458024978637695e-01 -3.414575010538101196e-02 3.017870187759399414e-01
-3.980405330657958984e-01 3.648199141025543213e-01 2.362212985754013062e-01
-4.947647154331207275e-01 -4.306861758232116699e-01 1.010433509945869446e-01
-1.107631698250770569e-01 -4.627523478120565414e-03 -5.529023408889770508e-01
-3.842355608940124512e-01 -3.054958879947662354e-01 -3.646303117275238037e-01
8.583052456378936768e-02 -2.553784251213073730e-01 -4.935950934886932373e-01
5.615391731262207031e-01 1.783452928066253662e-01 2.211731970310211182e-01
-2.231489568948745728e-01 1.210871115326881409e-01 -5.152763128280639648e-01
6.250371336936950684e-01 1.123384982347488403e-01 -9.153617918491363525e-02
5.758685469627380371e-01 -1.916340142488479614e-01 1.373990774154663086e-01
1.479073762893676758e-01 -4.647897481918334961e-01 3.607209026813507080e-01
-1.749562658369541168e-02 -2.518234252929687500e-01 -5.039625763893127441e-01
-4.709719717502593994e-01 -3.361554145812988281e-01 -2.600353360176086426e-01
2.529772520065307617e-01 -4.888648986816406250e-01 -2.130238860845565796e-01
2.175386101007461548e-01 -1.619958579540252686e-01 5.140125155448913574e-01
3.801341652870178223e-01 -4.278860986232757568e-01 2.067709416151046753e-01
5.207976102828979492e-01 -2.197463363409042358e-01 2.417138963937759399e-01
-1.277711540460586548e-01 -4.466423690319061279e-01 4.088003039360046387e-01
-1.775578111410140991e-01 3.072903156280517578e-01 -4.608643949031829834e-01
-2.370997369289398193e-01 -5.130891799926757812e-01 2.971338927745819092e-01
4.735326170921325684e-01 -3.806232511997222900e-01 -3.300813585519790649e-02
-1.875505894422531128e-01 -5.905503034591674805e-01 -1.005517393350601196e-01
-1.229835376143455505e-01 -5.330805182456970215e-01 -2.576774656772613525e-01
-3.293226063251495361e-01 -5.592533946037292480e-01 1.697780564427375793e-02
-5.128480792045593262e-01 3.288860321044921875e-01 -4.719386249780654907e-02
3.883485496044158936e-01 3.006914258003234863e-01 3.486947715282440186e-01
5.066080689430236816e-01 -2.985107898712158203e-01 1.781716644763946533e-01
4.072215855121612549e-01 -2.372646033763885498e-01 -3.504986763000488281e-01
-1.772837787866592407e-01 -4.350509643554687500e-01 4.079281687736511230e-01
5.060344338417053223e-01 -3.360967934131622314e-01 -5.852833390235900879e-02
3.125119581818580627e-02 -3.071276545524597168e-01 -4.738766849040985107e-01
-6.082266569137573242e-01 -9.568285942077636719e-02 2.015664726495742798e-01
4.681383073329925537e-01 1.826100945472717285e-01 -3.590337932109832764e-01
6.070128679275512695e-01 -1.539388597011566162e-01 2.664919942617416382e-02
2.500733733177185059e-01 -5.498993992805480957e-01 7.243567705154418945e-02
-5.782845020294189453e-01 -1.592795699834823608e-01 -2.251038551330566406e-01
-6.373161077499389648e-02 5.767451524734497070e-01 1.101534217596054077e-01
-4.653592035174369812e-02 5.373429656028747559e-01 2.205028682947158813e-01
-1.642868816852569580e-01 -1.320418268442153931e-01 5.446752309799194336e-01
3.761882483959197998e-01 7.309300452470779419e-02 -4.526974856853485107e-01
2.378005236387252808e-01 -1.677235662937164307e-01 5.049017667770385742e-01
3.636104762554168701e-01 3.186643421649932861e-01 -3.800354003906250000e-01
5.149462223052978516e-01 1.235847547650337219e-01 3.143781423568725586e-01
-5.996438860893249512e-01 1.812895089387893677e-01 2.976402081549167633e-02
-4.352795779705047607e-01 -3.564399480819702148e-01 3.194132447242736816e-01
4.891237616539001465e-01 -3.345914483070373535e-01 -1.264441758394241333e-01
2.245132774114608765e-01 -5.577401518821716309e-01 -5.051960051059722900e-02
5.891293883323669434e-01 5.029316246509552002e-02 2.133170366287231445e-01
-1.653644889593124390e-01 3.236233890056610107e-01 4.320514500141143799e-01
-2.998864948749542236e-01 3.547117114067077637e-01 -3.659472167491912842e-01
-2.352272905409336090e-02 2.030545175075531006e-01 -5.340067744255065918e-01
-6.795765459537506104e-02 -5.711007714271545410e-01 -1.957726180553436279e-01
3.570718765258789062e-01 4.643696844577789307e-01 -2.309915870428085327e-01
-1.254471540451049805e-01 3.151414692401885986e-01 4.489486217498779297e-01
3.706961274147033691e-01 -4.069197475910186768e-01 2.565382719039916992e-01
-5.743704438209533691e-01 1.940634250640869141e-01 -1.432070732116699219e-01
5.615164041519165039e-01 -2.445699274539947510e-01 -7.321341335773468018e-02
3.289315104484558105e-01 2.548936754465103149e-04 -4.799323678016662598e-01
-1.494115442037582397e-01 1.045660078525543213e-01 -5.389466881752014160e-01
4.748307466506958008e-01 2.940731346607208252e-01 -2.917674183845520020e-01
-2.919059693813323975e-01 4.982455372810363770e-01 -1.504188627004623413e-01
-1.584060937166213989e-01 -5.798355937004089355e-01 2.086944431066513062e-01
-2.460151165723800659e-02 5.536829829216003418e-01 -2.351436018943786621e-01
5.046520233154296875e-01 2.481698244810104370e-02 3.432246148586273193e-01
-9.852040559053421021e-02 2.625703066587448120e-02 -5.547128319740295410e-01
-3.123206198215484619e-01 1.214174702763557434e-01 -4.770986437797546387e-01
3.410852327942848206e-02 2.207505851984024048e-01 -5.291188955307006836e-01
-5.821461081504821777e-01 -1.943612843751907349e-01 -1.990335583686828613e-01
-4.850834012031555176e-01 -3.592838048934936523e-01 -2.167032808065414429e-01
4.037265181541442871e-01 -2.993265688419342041e-01 -3.067148029804229736e-01
-5.518031120300292969e-01 -1.895929425954818726e-01 -2.552067935466766357e-01
5.983850359916687012e-01 -1.547924578189849854e-01 9.860286861658096313e-02
6.013909578323364258e-01 -1.533108502626419067e-01 -6.988157331943511963e-02
-4.621985554695129395e-01 3.883976042270660400e-01 -3.343951702117919922e-02
3.649466633796691895e-01 -3.256888985633850098e-01 3.514694571495056152e-01
-1.908028498291969299e-02 1.991301774978637695e-02 5.639294385910034180e-01
-3.170776963233947754e-01 -3.363730311393737793e-01 -3.865191042423248291e-01
5.239593386650085449e-01 2.688554823398590088e-01 2.184802591800689697e-01
1.943154633045196533e-01 -5.760057568550109863e-01 3.333289176225662231e-02
5.282877087593078613e-01 -5.235157907009124756e-02 3.091892898082733154e-01
3.728215992450714111e-01 2.807831764221191406e-01 3.737192451953887939e-01
5.021750330924987793e-01 3.771102726459503174e-01 -1.361533552408218384e-01
-1.387780457735061646e-01 4.485554695129394531e-01 3.258127272129058838e-01
-2.764380574226379395e-01 -5.758197307586669922e-01 1.039078906178474426e-01
2.529228329658508301e-01 5.664249062538146973e-01 1.383056747727096081e-03
-4.015801548957824707e-01 -3.160070776939392090e-01 3.789972662925720215e-01
-8.257790654897689819e-02 5.834088325500488281e-01 6.456677615642547607e-02
-1.173671409487724304e-01 -5.543008446693420410e-03 5.574811100959777832e-01
1.073635816574096680e-01 -6.016883254051208496e-01 -4.172575194388628006e-03
-5.645752549171447754e-01 1.896498054265975952e-01 -1.769556552171707153e-01
-6.043794006109237671e-02 -2.075832784175872803e-01 5.434628129005432129e-01
3.569918870925903320e-01 -3.072110712528228760e-01 3.726302683353424072e-01
1.128670796751976013e-01 1.663914024829864502e-01 -5.370391011238098145e-01
2.524583041667938232e-02 5.191360116004943848e-01 -3.040247261524200439e-01
-4.848638176918029785e-02 4.926593899726867676e-01 -3.330073654651641846e-01
-3.761585950851440430e-01 -4.908096790313720703e-01 2.126109451055526733e-01
5.845437645912170410e-01 -8.208124339580535889e-02 -1.953551918268203735e-01
-7.150087505578994751e-02 -1.510856449604034424e-01 5.550396442413330078e-01
-2.407986111938953400e-02 5.989990234375000000e-01 -1.461400650441646576e-02
5.897804498672485352e-01 2.161207497119903564e-01 1.207784116268157959e-01
-2.546187639236450195e-01 4.242138862609863281e-01 2.948929667472839355e-01
-1.958215236663818359e-01 -5.655131340026855469e-01 2.241836637258529663e-01
3.699624240398406982e-01 5.035044550895690918e-01 -1.048545688390731812e-01
-3.987664282321929932e-01 3.880558907985687256e-01 1.987130790948867798e-01
-3.632172346115112305e-01 -5.400747656822204590e-01 -9.804956614971160889e-03
4.090741276741027832e-01 3.748764693737030029e-01 -2.942567169666290283e-01
5.328635126352310181e-02 3.362705558538436890e-02 5.604233741760253906e-01
-3.271467685699462891e-01 -2.308285981416702271e-01 -4.387316107749938965e-01
-5.756351351737976074e-01 8.901289105415344238e-02 -2.284034788608551025e-01
6.974993739277124405e-03 5.174139142036437988e-01 2.645410597324371338e-01
3.150067925453186035e-01 -3.829983249306678772e-02 -4.833019673824310303e-01
5.787249207496643066e-01 2.495582550764083862e-01 1.122928261756896973e-01
-6.100887060165405273e-01 1.522524356842041016e-01 4.263796657323837280e-02
-2.987517714500427246e-01 2.913933992385864258e-01 -4.141554236412048340e-01
5.243427157402038574e-01 3.260464966297149658e-01 1.477234065532684326e-01
-5.858461856842041016e-01 1.828813701868057251e-01 1.111934259533882141e-01
1.690503358840942383e-01 -5.753208994865417480e-01 1.254409700632095337e-01
-5.118370652198791504e-01 2.036143392324447632e-01 2.564677894115447998e-01
1.382330954074859619e-01 -3.402511179447174072e-01 4.671023786067962646e-01
5.056795477867126465e-01 4.794257692992687225e-03 -3.412750363349914551e-01
4.211201071739196777e-01 4.154224097728729248e-01 -2.282920330762863159e-01
-4.604404270648956299e-01 -4.276087880134582520e-01 1.997175216674804688e-01
6.257391571998596191e-01 -4.638628661632537842e-02 8.418928831815719604e-02
-3.976553380489349365e-01 -2.876397371292114258e-01 -3.659129738807678223e-01
9.201946109533309937e-02 -1.509161144495010376e-01 -5.312340259552001953e-01
5.941907763481140137e-01 6.896395236253738403e-02 -2.042989283800125122e-01
1.879301667213439941e-01 -6.217148527503013611e-02 5.382962822914123535e-01
3.302377834916114807e-02 3.517041504383087158e-01 -4.678684771060943604e-01
2.535584867000579834e-01 -2.962813675403594971e-01 -4.178705215454101562e-01
-4.449301064014434814e-01 -2.508283853530883789e-01 -3.481324613094329834e-01
3.145786821842193604e-01 4.689284861087799072e-01 -2.668722867965698242e-01
5.089478492736816406e-01 -2.100327759981155396e-01 -2.493663430213928223e-01
-8.676701784133911133e-02 5.570223927497863770e-01 1.602490693330764771e-01
4.957585632801055908e-01 -7.633566111326217651e-02 3.450251817703247070e-01
5.509926080703735352e-01 -2.336494773626327515e-01 1.576735377311706543e-01
9.311617165803909302e-02 -1.420061141252517700e-01 5.499001145362854004e-01
4.960553348064422607e-01 5.933538824319839478e-02 3.498564064502716064e-01
3.509938418865203857e-01 -1.115021556615829468e-01 4.604560136795043945e-01
-4.743370115756988525e-01 2.184557765722274780e-01 2.959741353988647461e-01
5.865575671195983887e-01 -9.043491631746292114e-02 1.950071454048156738e-01
4.673224687576293945e-01 3.718877732753753662e-01 1.902761906385421753e-01
2.936650812625885010e-01 -4.591810703277587891e-02 -4.926431775093078613e-01
-4.982248246669769287e-01 -4.006662070751190186e-01 -1.294986754655838013e-01
1.370117962360382080e-01 -4.171741008758544922e-01 -3.714759349822998047e-01
2.327605485916137695e-01 -4.492317140102386475e-01 3.323449492454528809e-01
-6.103137731552124023e-01 -4.850411415100097656e-02 -1.866112053394317627e-01
-3.479135632514953613e-01 -2.945996522903442383e-01 -3.953115642070770264e-01
1.322921067476272583e-01 -4.436226189136505127e-01 -3.464023470878601074e-01
5.137567520141601562e-01 -1.967511624097824097e-01 -2.523698806762695312e-01
-2.586072981357574463e-01 5.245894789695739746e-01 7.446034997701644897e-02
2.619591951370239258e-01 -5.461857914924621582e-01 1.264317054301500320e-02
-2.529645711183547974e-02 3.969349563121795654e-01 -4.338020086288452148e-01
-5.900221467018127441e-01 -1.423979848623275757e-01 2.300823181867599487e-01
-4.292824566364288330e-01 -4.328982532024383545e-01 -1.953634470701217651e-01
-1.908728927373886108e-01 4.630466401576995850e-01 2.827382981777191162e-01
3.770916163921356201e-01 -3.966853618621826172e-01 2.628456354141235352e-01
4.087517857551574707e-01 4.403411448001861572e-01 -2.042110860347747803e-01
4.803073406219482422e-01 -7.094563543796539307e-02 3.630615770816802979e-01
-3.621822968125343323e-02 -5.566615462303161621e-01 2.791423201560974121e-01
-4.464110732078552246e-01 -5.465700104832649231e-02 4.161188006401062012e-01
-2.349997162818908691e-01 -2.892505526542663574e-01 -4.509705305099487305e-01
-1.494252383708953857e-01 8.060401678085327148e-02 5.403534770011901855e-01
-6.431935429573059082e-01 3.779048100113868713e-03 -5.136023461818695068e-02
-3.622535616159439087e-02 8.555342257022857666e-02 5.540566444396972656e-01
-3.021774888038635254e-01 -1.660299003124237061e-01 4.943439364433288574e-01
6.277998089790344238e-01 1.353804618120193481e-01 -4.284941405057907104e-02
5.364207029342651367e-01 6.274420768022537231e-02 3.001964092254638672e-01
5.891422629356384277e-01 2.247213572263717651e-01 1.116094142198562622e-01
3.340049088001251221e-01 2.573747336864471436e-01 -4.325478672981262207e-01
-6.085952520370483398e-01 -1.094106584787368774e-01 -1.805535852909088135e-01
-5.239065885543823242e-01 -3.742884993553161621e-01 1.591504812240600586e-01
2.594635784626007080e-01 -3.196612894535064697e-01 4.300289154052734375e-01
3.344809412956237793e-01 -4.866718947887420654e-01 -1.016135960817337036e-01
6.176130175590515137e-01 -1.196295395493507385e-01 1.294128689914941788e-02
2.777021825313568115e-01 5.013461709022521973e-01 -2.444314211606979370e-01
6.030642986297607422e-01 2.265869975090026855e-01 2.929005026817321777e-02
1.578182578086853027e-01 -1.802686229348182678e-02 -5.420541763305664062e-01
2.501031160354614258e-01 -5.011265873908996582e-01 2.392326295375823975e-01
1.144409105181694031e-01 1.251064836978912354e-01 -5.446393489837646484e-01
1.744028739631175995e-02 -6.044939756393432617e-01 -8.895619213581085205e-02
-2.623446583747863770e-01 -4.392185509204864502e-01 -3.273632526397705078e-01
6.090672612190246582e-01 -1.478123366832733154e-01 -1.080056931823492050e-02
-2.429414242506027222e-01 -4.990192651748657227e-01 -2.641141116619110107e-01
5.847010612487792969e-01 1.745261251926422119e-01 1.744952797889709473e-01
3.068391382694244385e-01 -5.212267637252807617e-01 4.686136543750762939e-02
-2.106761038303375244e-01 8.300292491912841797e-02 5.239636898040771484e-01
-2.266358435153961182e-01 -1.912510842084884644e-01 5.175838470458984375e-01
1.198951080441474915e-01 -4.308866560459136963e-01 -3.636910021305084229e-01
4.458738267421722412e-01 -3.387132585048675537e-01 -2.095337957143783569e-01
4.989582672715187073e-02 -3.386342525482177734e-01 -4.527404904365539551e-01
3.251704871654510498e-01 -5.052725672721862793e-01 9.168527275323867798e-02
-2.909706830978393555e-01 -5.507341623306274414e-01 -1.252323091030120850e-01
5.674754381179809570e-01 -9.471664577722549438e-02 2.343110293149948120e-01
-1.804434806108474731e-01 -5.676445364952087402e-01 -1.721391081809997559e-01
-1.613503545522689819e-01 -4.895033538341522217e-01 3.577737212181091309e-01
1.797967553138732910e-01 4.226995706558227539e-01 -3.924541473388671875e-01
-5.570504069328308105e-01 -3.430248200893402100e-01 -8.098276704549789429e-02
4.226772487163543701e-01 -1.844580098986625671e-02 4.209807813167572021e-01
-9.268330782651901245e-02 2.499557584524154663e-01 4.929082393646240234e-01
2.977909147739410400e-01 -2.462207227945327759e-01 4.486060440540313721e-01
-4.541286528110504150e-01 -4.085549414157867432e-01 2.401324957609176636e-01
3.191473782062530518e-01 1.613436490297317505e-01 4.609056115150451660e-01
-5.545483827590942383e-01 -2.489842772483825684e-01 -2.128934115171432495e-01
-1.489408127963542938e-02 -3.542199432849884033e-01 4.831826388835906982e-01
-1.167416200041770935e-01 -4.466965198516845703e-01 -3.660842478275299072e-01
2.520927786827087402e-01 -5.394142270088195801e-01 1.307674497365951538e-01
-3.274081051349639893e-01 -2.233406603336334229e-01 4.676818251609802246e-01
-6.118574142456054688e-01 -6.697975844144821167e-02 1.953884512186050415e-01
2.737084329128265381e-01 -3.806870579719543457e-01 3.758162558078765869e-01
7.596145570278167725e-02 -5.382286906242370605e-01 -2.372435182332992554e-01
2.787206172943115234e-01 4.149108827114105225e-01 3.233341574668884277e-01
2.342487871646881104e-01 3.146464526653289795e-01 -4.511757493019104004e-01
-2.706284821033477783e-01 -5.830912590026855469e-01 5.838418006896972656e-02
-1.871330589056015015e-01 1.475199759006500244e-01 5.135295391082763672e-01
6.166238784790039062e-01 2.540624141693115234e-02 1.437518596649169922e-01
1.974418908357620239e-01 -2.456767559051513672e-01 -4.697816967964172363e-01
4.449916481971740723e-01 -4.499664902687072754e-02 -3.947795927524566650e-01
-4.909940958023071289e-01 2.203085571527481079e-01 -2.847857773303985596e-01
-2.671021819114685059e-01 -5.796056985855102539e-01 -4.472327232360839844e-02
2.536461353302001953e-01 -4.399766027927398682e-01 -2.870099544525146484e-01
3.887711092829704285e-02 -4.127821922302246094e-01 4.389578700065612793e-01
4.525513350963592529e-01 -2.208671420812606812e-01 -3.156207501888275146e-01
5.098450183868408203e-01 -1.429012715816497803e-01 3.065292537212371826e-01
-1.112859249114990234e-01 -5.923588275909423828e-01 1.919122934341430664e-01
1.708976626396179199e-01 3.078430891036987305e-01 4.508675634860992432e-01
8.971954882144927979e-02 -3.765416145324707031e-02 -5.526171326637268066e-01
-1.757794171571731567e-01 5.199072360992431641e-01 -2.334263771772384644e-01
1.485166251659393311e-01 2.193464785814285278e-01 -5.163395404815673828e-01
5.949945449829101562e-01 -1.872538179159164429e-01 -9.147105738520622253e-03
1.286590248346328735e-01 8.374538272619247437e-02 5.436475872993469238e-01
-2.566494047641754150e-01 -3.233290314674377441e-01 4.578843116760253906e-01
-6.377569437026977539e-01 5.518879741430282593e-02 3.534225374460220337e-02
6.194893121719360352e-01 -5.903087183833122253e-02 1.074273064732551575e-01
-5.072587728500366211e-01 2.498004585504531860e-01 -2.328065633773803711e-01
-1.253957748413085938e-01 -5.735881924629211426e-01 2.358087152242660522e-01
-4.169231057167053223e-01 -4.156967103481292725e-01 2.789001762866973877e-01
2.082059830427169800e-01 3.992440402507781982e-01 3.713187277317047119e-01
2.799794673919677734e-01 -2.573409974575042725e-01 4.532619714736938477e-01
-5.154054760932922363e-01 -4.084986150264739990e-01 9.560363739728927612e-02
4.265817403793334961e-01 4.043750166893005371e-01 -2.370962202548980713e-01
1.720604002475738525e-01 -2.855291366577148438e-01 -4.573938250541687012e-01
-3.449552655220031738e-01 4.613109529018402100e-01 -1.615039557218551636e-01
4.636620879173278809e-01 2.665928378701210022e-02 3.854080736637115479e-01
-4.319098293781280518e-01 -4.961602389812469482e-01 2.858034335076808929e-02
-4.936213493347167969e-01 -3.485565781593322754e-01 -2.164447009563446045e-01
-6.176769733428955078e-01 -1.655947118997573853e-01 1.500642746686935425e-01
-7.066816836595535278e-02 -4.874403178691864014e-01 3.749469816684722900e-01
5.918896570801734924e-02 4.454576969146728516e-01 -3.931860327720642090e-01
-3.472240269184112549e-01 9.006076306104660034e-02 -4.643826484680175781e-01
-4.936162233352661133e-01 2.646236494183540344e-02 -3.590528368949890137e-01
-5.404813885688781738e-01 2.413765639066696167e-01 1.590057313442230225e-01
3.844524323940277100e-01 -4.682836532592773438e-01 1.337260380387306213e-02
3.091070242226123810e-02 1.805553138256072998e-01 -5.409077405929565430e-01
-1.238933205604553223e-01 -6.140267848968505859e-01 -3.145098686218261719e-02
-3.040910065174102783e-01 6.532733887434005737e-02 4.914371669292449951e-01
-6.233698725700378418e-01 2.286463975906372070e-02 1.448661088943481445e-01
2.145435959100723267e-01 5.396475791931152344e-01 -2.148930579423904419e-01
1.024916023015975952e-01 7.790832221508026123e-02 -5.519200563430786133e-01
8.711026608943939209e-02 2.106374800205230713e-01 -5.286458134651184082e-01
2.037662565708160400e-01 -2.262597903609275818e-02 5.347920060157775879e-01
1.118604540824890137e-01 4.262304902076721191e-01 -4.052699804306030273e-01
2.379592806100845337e-01 -2.587844729423522949e-01 4.730800986289978027e-01
5.577711462974548340e-01 -2.152913436293601990e-02 2.701964080333709717e-01
2.842076681554317474e-02 -6.146597266197204590e-01 7.594928890466690063e-02
4.988996684551239014e-02 2.573930025100708008e-01 4.966842532157897949e-01
2.348337918519973755e-01 2.663241624832153320e-01 4.543371796607971191e-01
2.108404785394668579e-01 3.303965926170349121e-01 -4.504477083683013916e-01
-1.017624512314796448e-01 -5.973260402679443359e-01 1.791351437568664551e-01
5.517388582229614258e-01 -1.806126236915588379e-01 2.139950245618820190e-01
4.974428117275238037e-01 -2.718970477581024170e-01 -2.075118869543075562e-01
5.366600751876831055e-01 -3.406257554888725281e-02 -2.961045503616333008e-01
-2.019223570823669434e-01 -2.692766785621643066e-01 5.006769299507141113e-01
-6.122620776295661926e-02 1.362603455781936646e-01 5.403489470481872559e-01
-3.242424130439758301e-01 2.410417050123214722e-01 -4.272054731845855713e-01
2.505110502243041992e-01 5.285369157791137695e-01 1.686158031225204468e-01
-6.259493231773376465e-01 1.089174747467041016e-01 -1.827619224786758423e-02
-3.245039582252502441e-01 4.915979504585266113e-01 5.980896204710006714e-02
-2.900160551071166992e-01 -5.105908513069152832e-01 2.662363946437835693e-01
2.358058989048004150e-01 -4.561828672885894775e-01 -2.783617377281188965e-01
-2.013802342116832733e-02 1.476601660251617432e-01 5.396967530250549316e-01
-3.022339940071105957e-02 8.517733961343765259e-02 -5.572748780250549316e-01
-1.231423541903495789e-01 5.821757912635803223e-01 -1.510316319763660431e-02
5.346742868423461914e-01 -2.397289127111434937e-01 1.929179579019546509e-01
-3.835022449493408203e-01 -5.117344260215759277e-01 -9.581152349710464478e-02
4.729993939399719238e-01 1.154464557766914368e-01 3.628705143928527832e-01
-4.343379735946655273e-01 -4.547206759452819824e-01 1.948457062244415283e-01
-3.179884701967239380e-02 -5.983174443244934082e-01 -1.242516711354255676e-01
1.672040112316608429e-02 -5.939226746559143066e-01 -1.284783929586410522e-01
2.329225987195968628e-01 -5.567724108695983887e-01 -3.078537993133068085e-02
5.922825932502746582e-01 2.554103434085845947e-01 -4.120028764009475708e-02
4.372578859329223633e-01 5.027801170945167542e-02 4.067673087120056152e-01
-4.864211082458496094e-01 -1.049134321510791779e-02 -3.691459894180297852e-01
-3.103379309177398682e-01 3.291403055191040039e-01 3.572367727756500244e-01
2.172123789787292480e-01 -5.226925611495971680e-01 -1.790895164012908936e-01
-4.397412296384572983e-03 -2.627030313014984131e-01 -4.988080263137817383e-01
2.028077691793441772e-01 -2.348499745130538940e-01 4.970053732395172119e-01
-3.587233126163482666e-01 -6.948443502187728882e-02 -4.634836614131927490e-01
-6.036831140518188477e-01 -2.019653655588626862e-02 -2.012076377868652344e-01
4.748152494430541992e-01 2.400661408901214600e-01 3.075568079948425293e-01
4.541257321834564209e-01 -2.865196764469146729e-02 -3.894430696964263916e-01
7.454519718885421753e-02 4.166909456253051758e-01 -4.182590246200561523e-01
2.755580842494964600e-01 2.740015387535095215e-01 -4.548524618148803711e-01
1.134262681007385254e-01 5.693740248680114746e-01 1.467020213603973389e-01
-2.093053795397281647e-02 2.174732983112335205e-01 -5.296010375022888184e-01
5.198445916175842285e-01 -9.727941453456878662e-02 3.098339140415191650e-01
1.944898515939712524e-01 -3.571659624576568604e-01 4.363456368446350098e-01
4.819754362106323242e-01 -3.325222432613372803e-01 -1.491447538137435913e-01
-4.516842961311340332e-02 -6.101381778717041016e-01 1.374120116233825684e-01
6.337897181510925293e-01 -2.789240330457687378e-02 -3.031581081449985504e-02
-4.230453670024871826e-01 4.006121456623077393e-01 1.257040649652481079e-01
-4.762175977230072021e-01 2.910129129886627197e-01 -2.396314889192581177e-01
5.404667258262634277e-01 3.435387015342712402e-01 5.010287463665008545e-02
3.985313326120376587e-02 5.632307529449462891e-01 1.752032935619354248e-01
6.277041435241699219e-01 -7.572185248136520386e-02 9.592995047569274902e-04
3.944690823554992676e-01 1.060677990317344666e-01 4.302490055561065674e-01
-3.707906305789947510e-01 8.209203183650970459e-02 -4.514306485652923584e-01
5.799541994929313660e-02 5.239490866661071777e-01 -2.959743142127990723e-01
-2.087216377258300781e-01 4.129653051495552063e-02 5.321725606918334961e-01
-1.701363772153854370e-01 5.680526494979858398e-01 8.228590711951255798e-03
3.767185211181640625e-01 4.589916169643402100e-01 -2.158916890621185303e-01
6.173619627952575684e-01 8.980179578065872192e-02 -1.357004940509796143e-01
-2.439671456813812256e-01 2.233223766088485718e-01 4.629886150360107422e-01
3.762431442737579346e-01 1.467803865671157837e-01 -4.427097141742706299e-01
3.384125530719757080e-01 8.290715515613555908e-02 -4.743409156799316406e-01
-5.911539196968078613e-01 1.243685465306043625e-02 2.298853546380996704e-01
-5.644282698631286621e-01 -2.592137455940246582e-01 -1.849735081195831299e-01
-6.189187616109848022e-02 9.641260653734207153e-02 -5.537704825401306152e-01
5.602289438247680664e-01 -3.574254363775253296e-02 2.641373872756958008e-01
-5.946956276893615723e-01 -7.185304164886474609e-02 -2.188138216733932495e-01
-1.229188367724418640e-01 9.405490010976791382e-02 -5.457594394683837891e-01
-4.464732408523559570e-01 -2.372880280017852783e-01 -3.537974357604980469e-01
-2.809711098670959473e-01 -5.579048395156860352e-01 1.708898842334747314e-01
2.786789238452911377e-01 1.144159063696861267e-01 -4.998032450675964355e-01
-5.368819236755371094e-01 -3.151313364505767822e-01 2.162906080484390259e-01
6.281785368919372559e-01 7.957131415605545044e-02 -9.264328330755233765e-02
-1.328822225332260132e-01 5.375544428825378418e-01 1.827190369367599487e-01
-5.464468002319335938e-01 1.534731835126876831e-01 -2.458384633064270020e-01
2.501904070377349854e-01 -3.364896774291992188e-01 4.240074753761291504e-01
-5.263438224792480469e-01 -6.078936532139778137e-02 3.371142446994781494e-01
1.103830933570861816e-01 -3.182749152183532715e-01 4.867507815361022949e-01
6.270545721054077148e-01 1.173058673739433289e-01 -7.512483745813369751e-02
1.335992068052291870e-01 -5.954915881156921387e-01 4.974599927663803101e-02
-1.395342350006103516e-01 1.870408654212951660e-01 -5.227783322334289551e-01
-1.261754930019378662e-01 -2.348394393920898438e-01 -5.029512643814086914e-01
3.349194228649139404e-01 -2.153598070144653320e-01 -4.180528223514556885e-01
-5.818154662847518921e-02 -1.405860483646392822e-01 -5.404442548751831055e-01
-2.040096521377563477e-01 -5.957593321800231934e-01 1.182890310883522034e-01
-3.150629103183746338e-01 -4.998268783092498779e-01 -2.128595858812332153e-01
2.903024554252624512e-01 -4.935032129287719727e-01 -1.605157256126403809e-01
2.016378939151763916e-01 -4.557887911796569824e-01 -3.006125688552856445e-01
1.792021244764328003e-01 -1.685453057289123535e-01 5.250289440155029297e-01
-4.581151902675628662e-01 -1.819294691085815430e-01 3.903311789035797119e-01
-1.285325586795806885e-01 -5.711487680673599243e-02 -5.466808676719665527e-01
-3.581750392913818359e-01 4.328649342060089111e-01 1.749814450740814209e-01
1.508794575929641724e-01 5.832452178001403809e-01 -1.232074126601219177e-01
4.090587794780731201e-01 -1.448728889226913452e-01 -3.961585760116577148e-01
-1.566438227891921997e-01 5.365717411041259766e-01 1.683568507432937622e-01
3.123837411403656006e-01 -4.862838685512542725e-01 -1.452253758907318115e-01
-2.935089468955993652e-01 -1.919785887002944946e-01 -4.694379270076751709e-01
4.812434911727905273e-01 -2.704500257968902588e-01 -2.364364713430404663e-01
4.111364185810089111e-01 -2.751922905445098877e-01 -3.194778561592102051e-01
1.373863071203231812e-01 -5.714769363403320312e-01 1.795552968978881836e-01
1.868528276681900024e-01 -4.605953395366668701e-01 3.466789722442626953e-01
4.365618526935577393e-01 4.288524985313415527e-01 1.426553279161453247e-01
-1.372520811855792999e-02 4.215363264083862305e-01 -4.143665730953216553e-01
-9.696918725967407227e-02 1.155534759163856506e-01 5.416782498359680176e-01
-4.636591076850891113e-01 1.081892997026443481e-01 3.696731030941009521e-01
-4.067146480083465576e-01 -1.774856448173522949e-01 -4.098630249500274658e-01
-2.496667206287384033e-01 -3.983645886182785034e-02 5.257990360260009766e-01
6.330950260162353516e-01 8.734717220067977905e-02 -5.447147041559219360e-02
4.833786189556121826e-02 4.790616929531097412e-01 -3.576697111129760742e-01
-2.883464097976684570e-01 1.711972206830978394e-01 -4.755230545997619629e-01
3.232555985450744629e-01 4.756892323493957520e-01 2.086901366710662842e-01
-5.268919467926025391e-01 2.168778777122497559e-01 2.187610864639282227e-01
2.499972283840179443e-01 1.183585301041603088e-01 -5.106331706047058105e-01
-1.408325135707855225e-02 -6.034876704216003418e-01 1.608698517084121704e-01
-2.645601928234100342e-01 -5.006552338600158691e-01 2.992380261421203613e-01
5.848585367202758789e-01 1.487688273191452026e-01 -2.024442553520202637e-01
-2.086200416088104248e-01 -7.938290387392044067e-02 5.384076833724975586e-01
1.908876448869705200e-01 -5.417488217353820801e-01 -1.593095660209655762e-01
3.351055085659027100e-01 -2.648042738437652588e-01 4.158798456192016602e-01
2.687478363513946533e-01 -5.359030365943908691e-01 1.059813648462295532e-01
-6.072886586189270020e-01 1.476226449012756348e-01 7.683545351028442383e-02
6.129048466682434082e-01 -1.292496472597122192e-01 -3.894766420125961304e-02
5.986836552619934082e-01 6.758472882211208344e-03 1.931306421756744385e-01
-4.002053141593933105e-01 -7.286182790994644165e-02 4.503412544727325439e-01
-7.224962115287780762e-02 -5.054628252983093262e-01 -3.044819831848144531e-01
-6.331996321678161621e-01 -1.992082223296165466e-02 -1.159818172454833984e-01
-5.544465184211730957e-01 1.443350762128829956e-01 -2.374409437179565430e-01
6.114978194236755371e-01 -3.774650767445564270e-02 -1.446041613817214966e-01
3.909566439688205719e-04 -1.024873331189155579e-01 5.634576082229614258e-01
-3.034616708755493164e-01 1.455780211836099625e-02 -4.951841533184051514e-01
4.334379434585571289e-01 4.201523661613464355e-01 -2.011776566505432129e-01
-3.124751150608062744e-01 4.199826717376708984e-01 -2.837383449077606201e-01
1.634885966777801514e-01 -2.217656001448631287e-02 5.458720326423645020e-01
1.696109175682067871e-01 -7.630279660224914551e-02 -5.321215391159057617e-01
5.496103763580322266e-01 -2.780379652976989746e-01 -2.231260016560554504e-02
-2.722960412502288818e-01 4.013034701347351074e-01 -3.398775160312652588e-01
-4.584759771823883057e-01 3.149012029170989990e-01 2.184613496065139771e-01
-3.459993600845336914e-01 -5.507396459579467773e-01 1.219590380787849426e-02
5.972458794713020325e-02 4.892041087150573730e-01 -3.448231220245361328e-01
3.334565162658691406e-01 9.396117925643920898e-02 4.702839255332946777e-01
1.295741349458694458e-01 -3.945330977439880371e-01 4.327520430088043213e-01
2.502998113632202148e-01 4.589969664812088013e-02 -5.162886977195739746e-01
-4.041206240653991699e-01 -4.788419306278228760e-01 1.958600282669067383e-01
3.459714353084564209e-01 -2.768889069557189941e-01 -3.743664026260375977e-01
-8.211656659841537476e-02 -5.128160119056701660e-01 3.438660800457000732e-01
6.343669295310974121e-01 9.581168740987777710e-02 1.945354044437408447e-02
-2.126275599002838135e-01 -2.520763576030731201e-01 5.039861798286437988e-01
4.947776496410369873e-01 -2.210008203983306885e-01 -2.618440091609954834e-01
1.148237362504005432e-01 -4.552794992923736572e-01 3.835018277168273926e-01
-2.710263133049011230e-01 -1.117441952228546143e-01 5.152471661567687988e-01
-3.544037938117980957e-01 2.353695929050445557e-01 -4.101375937461853027e-01
-1.605345457792282104e-01 -6.126462221145629883e-01 2.686546370387077332e-02
5.454613566398620605e-01 -1.590339690446853638e-01 2.420909851789474487e-01
-6.014653667807579041e-02 3.644761145114898682e-01 4.261105060577392578e-01
-1.502389907836914062e-01 -2.179563194513320923e-01 5.297524929046630859e-01
-4.167472720146179199e-01 -4.621858596801757812e-01 2.094420641660690308e-01
1.255123615264892578e-01 2.971985042095184326e-01 -4.893738329410552979e-01
4.850070178508758545e-01 3.949593305587768555e-01 -1.426014304161071777e-01
-2.292103767395019531e-01 -1.026364564895629883e-01 -5.159485340118408203e-01
3.126414418220520020e-01 -2.439419273287057877e-03 4.909861683845520020e-01
2.345455735921859741e-01 5.706914663314819336e-01 -7.198595255613327026e-02
2.271655648946762085e-01 -2.214975208044052124e-01 -4.699920713901519775e-01
1.315164864063262939e-01 -4.315873607993125916e-02 5.527664422988891602e-01
1.397255063056945801e-01 3.918165564537048340e-01 3.976357281208038330e-01
-2.013146691024303436e-02 -5.440315008163452148e-01 2.997377812862396240e-01
1.719336025416851044e-02 -2.431181222200393677e-01 5.324113965034484863e-01
-6.490760296583175659e-02 -5.328963398933410645e-01 3.174470961093902588e-01
-6.343135237693786621e-01 -1.807476431131362915e-01 -1.160465739667415619e-02
-7.946542464196681976e-04 3.563457429409027100e-01 4.375381171703338623e-01
-1.666556000709533691e-01 -3.623732030391693115e-01 -4.263416826725006104e-01
7.358056306838989258e-02 1.034389883279800415e-01 -5.527231693267822266e-01
1.263863295316696167e-01 -3.492188751697540283e-01 -4.305044412612915039e-01
2.000089734792709351e-01 -4.648209363222122192e-02 -5.280978083610534668e-01
1.261901259422302246e-01 -4.470936357975006104e-01 3.878979086875915527e-01
1.003748401999473572e-01 -5.729544758796691895e-01 -1.499444395303726196e-01
-8.159136772155761719e-02 -2.909616231918334961e-01 5.132636427879333496e-01
3.166486620903015137e-01 -4.762575924396514893e-01 -1.629415452480316162e-01
3.916086256504058838e-01 -4.597646594047546387e-01 6.973233073949813843e-02
1.691465675830841064e-01 -2.076253294944763184e-01 5.172764062881469727e-01
-3.863730728626251221e-01 -4.949171543121337891e-01 -1.382490098476409912e-01
-8.843070827424526215e-03 -6.178706884384155273e-01 -1.941051334142684937e-02
5.812274813652038574e-01 -1.365154683589935303e-01 1.793333441019058228e-01
4.339655637741088867e-01 1.155962869524955750e-01 3.980666697025299072e-01
5.832760930061340332e-01 -2.020062692463397980e-02 2.241852581501007080e-01
-2.834318876266479492e-01 -5.739190578460693359e-01 -4.226969182491302490e-02
-3.590141534805297852e-01 -5.136322975158691406e-01 -1.341499090194702148e-01
3.997241556644439697e-01 -6.057923659682273865e-03 4.384823441505432129e-01
4.986940324306488037e-01 2.586144208908081055e-01 -2.865769267082214355e-01
3.447938859462738037e-01 -3.083088099956512451e-01 3.817065358161926270e-01
3.959722518920898438e-01 -4.438619017601013184e-01 -8.963982015848159790e-02
-6.859592348337173462e-02 -4.702948629856109619e-01 -3.468797802925109863e-01
5.297846794128417969e-01 -1.129783689975738525e-01 2.905532121658325195e-01
-3.610126674175262451e-01 3.255402147769927979e-01 3.210568726062774658e-01
9.263280034065246582e-02 -4.549410343170166016e-01 -3.466228544712066650e-01
4.440904855728149414e-01 4.003971815109252930e-01 1.835058331489562988e-01
2.678211629390716553e-01 -2.971241474151611328e-01 -4.099791347980499268e-01
6.374544501304626465e-01 5.630423873662948608e-02 1.583097502589225769e-02
-5.959774255752563477e-01 -5.290825664997100830e-02 2.304894775152206421e-01
-4.176366925239562988e-01 -1.809835880994796753e-01 -4.007150232791900635e-01
5.404368042945861816e-01 3.496935665607452393e-01 1.440856885164976120e-02
-2.763724923133850098e-01 4.765255451202392578e-01 -2.276872843503952026e-01
6.208051443099975586e-01 9.118252992630004883e-02 1.150422394275665283e-01
3.871182799339294434e-01 -4.409159719944000244e-01 1.631218492984771729e-01
7.014293223619461060e-04 -1.112614274024963379e-01 -5.482753515243530273e-01
-2.462717443704605103e-01 6.126724928617477417e-02 5.164089202880859375e-01
5.123734474182128906e-01 -3.546413499861955643e-03 -3.325553238391876221e-01
5.862955451011657715e-01 2.692332565784454346e-01 -3.922989219427108765e-02
-4.839016497135162354e-01 -4.390311539173126221e-01 1.131206676363945007e-01
-2.832402288913726807e-01 4.535973668098449707e-01 2.279979586601257324e-01
-6.136354804039001465e-01 -2.256171256303787231e-01 -7.686192542314529419e-02
-1.963623911142349243e-01 -5.251379683613777161e-02 5.424204468727111816e-01
8.540857583284378052e-02 -1.254987120628356934e-01 5.537101030349731445e-01
-1.697980314493179321e-01 8.704093843698501587e-02 5.343693494796752930e-01
2.838089466094970703e-01 -5.030819177627563477e-01 1.930184066295623779e-01
-1.030487120151519775e-01 -6.195337772369384766e-01 3.893344849348068237e-02
-6.055371761322021484e-01 -1.254257857799530029e-01 2.014252394437789917e-01
-3.640445470809936523e-01 2.752979844808578491e-02 -4.622908830642700195e-01
-8.347319439053535461e-03 4.637242555618286133e-01 -3.734789490699768066e-01
-5.445217490196228027e-01 -1.883288174867630005e-01 -2.667050659656524658e-01
1.700174622237682343e-02 -2.700474560260772705e-01 -4.943776726722717285e-01
3.056924343109130859e-01 -5.328495055437088013e-02 -4.857841730117797852e-01
3.017268180847167969e-01 4.024651646614074707e-01 -3.552061319351196289e-01
5.688798427581787109e-01 -1.241689547896385193e-02 -2.501423954963684082e-01
-8.581526577472686768e-02 2.187026441097259521e-01 5.084098577499389648e-01
6.196271181106567383e-01 3.333806991577148438e-02 1.332837343215942383e-01
3.113570511341094971e-01 -2.860606312751770020e-01 4.197475612163543701e-01
1.869966089725494385e-01 7.096157968044281006e-02 5.325306057929992676e-01
1.315513849258422852e-01 -3.530999124050140381e-01 4.611073434352874756e-01
2.661215364933013916e-01 2.487652450799942017e-01 4.508203566074371338e-01
-1.156236827373504639e-01 -2.010066807270050049e-01 5.399018526077270508e-01
2.824887037277221680e-01 -4.636625349521636963e-01 -2.282380461692810059e-01
9.649837762117385864e-02 -1.186135709285736084e-01 -5.386666059494018555e-01
3.573761284351348877e-01 3.069517314434051514e-01 -3.918384909629821777e-01
