-1.084079593420028687e-02 6.320323944091796875e-01 -7.230842858552932739e-02
-3.468680009245872498e-02 -4.445680975914001465e-02 -7.703320682048797607e-02
3.214302659034729004e-02 -6.199485808610916138e-02 9.421657770872116089e-02
-3.143190219998359680e-02 -3.783088922500610352e-01 -5.859262496232986450e-02
2.139419317245483398e-02 2.666631042957305908e-01 -1.420007795095443726e-01
2.569006942212581635e-02 1.319543458521366119e-03 -1.315431892871856689e-01
2.432140335440635681e-02 3.773102071136236191e-03 1.467255204916000366e-01
-1.946101337671279907e-02 5.244161486625671387e-01 6.447060406208038330e-02
-2.765177376568317413e-02 4.001811444759368896e-01 -6.030594557523727417e-02
-3.639071807265281677e-02 3.443309664726257324e-02 2.647257782518863678e-02
-5.568989086896181107e-03 9.975351393222808838e-02 1.836429834365844727e-01
3.295882791280746460e-02 -1.472803056240081787e-01 7.203995436429977417e-02
4.557482432574033737e-03 -5.439040660858154297e-01 -1.123658195137977600e-01
2.114466577768325806e-02 -3.756099045276641846e-01 -1.023568883538246155e-01
3.618603572249412537e-02 1.563467234373092651e-01 4.224439710378646851e-02
3.108778037130832672e-02 1.684707254171371460e-01 -9.561844915151596069e-02
-2.822861075401306152e-02 9.396633505821228027e-02 1.123386994004249573e-01
3.173175081610679626e-02 -3.013646006584167480e-01 1.780637912452220917e-02
8.717699907720088959e-03 3.766336143016815186e-01 -1.606902033090591431e-01
3.247502818703651428e-02 3.669618368148803711e-01 5.176458135247230530e-02
1.695031300187110901e-02 2.300307601690292358e-01 1.625972539186477661e-01
-2.833398059010505676e-02 2.741704881191253662e-01 8.338162302970886230e-02
-2.340894751250743866e-02 -1.958092898130416870e-01 -1.455522924661636353e-01
-3.026843070983886719e-02 -2.743314020335674286e-02 -1.172732785344123840e-01
-3.139345720410346985e-02 -2.468372285366058350e-01 8.331296592950820923e-02
-2.964550815522670746e-02 2.278472781181335449e-01 -9.781460464000701904e-02
-2.685381099581718445e-02 3.257454335689544678e-01 8.224453777074813843e-02
-3.407454490661621094e-02 -1.655572205781936646e-01 -7.780505716800689697e-02
2.010680548846721649e-02 -5.410072803497314453e-01 -2.947559207677841187e-02
-3.017519600689411163e-02 2.582134865224361420e-02 -1.167114078998565674e-01
-3.587318211793899536e-02 7.109076716005802155e-03 -5.708490684628486633e-02
-1.047769933938980103e-02 6.128711700439453125e-01 -8.552054315805435181e-02
-1.304312609136104584e-02 5.249449610710144043e-01 -1.131931617856025696e-01
1.089695654809474945e-02 -6.429196596145629883e-01 -3.125789761543273926e-02
-1.174754556268453598e-02 -6.096935272216796875e-01 8.832912892103195190e-02
-2.784025296568870544e-02 -3.094223439693450928e-01 1.009905114769935608e-01
2.226693741977214813e-02 1.203661113977432251e-01 1.536673456430435181e-01
2.836218476295471191e-02 1.456917375326156616e-01 -1.162121444940567017e-01
3.540706634521484375e-02 2.889679372310638428e-01 -4.615975543856620789e-03
-2.487746439874172211e-02 -9.219341725111007690e-02 1.360402256250381470e-01
3.357155993580818176e-02 -1.369196027517318726e-01 -5.209990218281745911e-02
-2.669307403266429901e-02 1.660616248846054077e-01 -1.278814226388931274e-01
-3.595608472824096680e-02 -2.048282921314239502e-01 2.645828947424888611e-02
2.278937026858329773e-02 -2.646542489528656006e-01 -1.185592859983444214e-01
-1.436596550047397614e-02 -6.623301506042480469e-01 4.261428862810134888e-02
-3.521157056093215942e-02 8.641453087329864502e-02 4.262287914752960205e-02
-1.315422821789979935e-02 4.650523960590362549e-01 1.189706847071647644e-01
2.404821105301380157e-02 -4.651004374027252197e-01 5.213759094476699829e-02
-2.402322366833686829e-02 4.890303611755371094e-01 -5.341759324073791504e-02
6.821924354881048203e-03 -5.346984863281250000e-01 1.187537014484405518e-01
2.546717599034309387e-02 2.644716799259185791e-01 -1.238465383648872375e-01
-2.168004401028156281e-02 -2.801935970783233643e-01 -1.429666578769683838e-01
2.984301559627056122e-02 -3.555235564708709717e-01 2.620924636721611023e-02
-3.408798947930335999e-02 -2.344949394464492798e-01 5.515245348215103149e-02
3.417268022894859314e-02 2.609808146953582764e-01 -5.058820545673370361e-02
-1.688854768872261047e-02 -4.141513705253601074e-01 1.327562332153320312e-01
-3.087212145328521729e-02 -4.379280507564544678e-01 2.457095310091972351e-02
-6.950651761144399643e-03 7.687147706747055054e-02 1.830045729875564575e-01
3.410954773426055908e-02 -7.084298878908157349e-02 -5.770562961697578430e-02
3.334776312112808228e-02 -1.521834582090377808e-01 6.530309468507766724e-02
1.189785357564687729e-02 -6.080892086029052734e-01 6.678243726491928101e-02
3.705522045493125916e-02 9.779994934797286987e-02 -3.483715234324336052e-03
3.010935150086879730e-02 -8.827946335077285767e-02 -9.719999134540557861e-02
-3.585350140929222107e-02 -2.318889349699020386e-01 -3.164036944508552551e-02
1.613366045057773590e-02 -1.258177608251571655e-01 1.684334278106689453e-01
-2.061027474701404572e-02 -5.886747837066650391e-01 5.616320669651031494e-02
-3.672661632299423218e-02 -4.499625414609909058e-02 2.607594057917594910e-02
2.715014107525348663e-02 2.633546292781829834e-01 1.208614632487297058e-01
-3.014819324016571045e-02 -4.709757268428802490e-01 -5.994431674480438232e-03
2.472559548914432526e-02 -4.466759860515594482e-01 -4.200647026300430298e-02
-3.105961345136165619e-02 -3.186772167682647705e-01 7.283819466829299927e-02
-2.777299284934997559e-02 1.511689424514770508e-01 -1.230864971876144409e-01
-3.197928145527839661e-02 -4.183019697666168213e-01 -1.649316772818565369e-02
3.123505041003227234e-02 -1.538505554199218750e-01 9.040434658527374268e-02
9.768121875822544098e-03 -6.433416604995727539e-01 5.129669234156608582e-02
2.382046543061733246e-02 3.157758712768554688e-01 -1.258505731821060181e-01
-1.487730536609888077e-02 -1.381284892559051514e-01 1.686829924583435059e-01
2.540110796689987183e-02 3.610279560089111328e-01 -1.104815378785133362e-01
-1.908324658870697021e-02 -1.423361599445343018e-01 1.569371819496154785e-01
-2.223114110529422760e-02 9.354162029922008514e-03 -1.571145951747894287e-01
-3.419207036495208740e-02 1.860166937112808228e-01 3.401383757591247559e-02
3.359683975577354431e-02 -8.977513760328292847e-02 -6.162820011377334595e-02
-1.894244924187660217e-02 -1.669596433639526367e-01 1.561490148305892944e-01
3.701554238796234131e-02 1.308609843254089355e-01 8.513071574270725250e-03
3.265447169542312622e-02 1.181078702211380005e-01 9.433874487876892090e-02
-1.297530718147754669e-02 -6.523844003677368164e-01 -5.738288164138793945e-02
-2.590427407994866371e-03 -2.856681942939758301e-01 -1.724439263343811035e-01
2.399850636720657349e-02 -1.942412704229354858e-01 1.341385394334793091e-01
-2.694722265005111694e-02 1.569241881370544434e-01 1.139817610383033752e-01
3.109421022236347198e-02 2.928232550621032715e-01 8.862045407295227051e-02
2.121515199542045593e-02 -5.401852130889892578e-01 4.545510746538639069e-03
-2.713597938418388367e-02 -6.114947795867919922e-02 1.248791515827178955e-01
-2.116098627448081970e-02 -3.908459544181823730e-01 1.218526661396026611e-01
-3.113353438675403595e-02 1.908304095268249512e-01 -9.140958636999130249e-02
2.588143758475780487e-02 5.565695762634277344e-01 -3.368030488491058350e-02
1.540561672300100327e-02 5.091856122016906738e-01 1.193272173404693604e-01
1.382534392178058624e-02 -5.461185574531555176e-01 -8.069305866956710815e-02
3.439064696431159973e-02 -1.215170100331306458e-01 -4.221443831920623779e-02
-8.194353431463241577e-03 -5.126957297325134277e-01 1.290963292121887207e-01
-3.034523315727710724e-02 2.536663711071014404e-01 -8.513623476028442383e-02
2.788793668150901794e-02 9.041549265384674072e-02 1.292073130607604980e-01
-1.417408697307109833e-02 6.047198772430419922e-01 5.659345164895057678e-02
1.608076505362987518e-02 6.630615592002868652e-01 4.579976201057434082e-02
2.988124266266822815e-02 -7.803842425346374512e-02 1.115760281682014465e-01
-2.135297469794750214e-02 -3.683094680309295654e-02 -1.602489352226257324e-01
-2.866159938275814056e-02 -1.772819757461547852e-01 1.114290803670883179e-01
-2.939769811928272247e-02 -3.699806332588195801e-01 7.570401579141616821e-02
2.359092468395829201e-03 1.737253665924072266e-01 -1.857773363590240479e-01
-1.993425004184246063e-02 4.997211396694183350e-01 -8.792119473218917847e-02
-3.538773953914642334e-02 1.455906629562377930e-01 2.010664530098438263e-02
2.800640836358070374e-02 4.998162388801574707e-01 -4.472345858812332153e-02
-1.527152396738529205e-02 -5.432725697755813599e-02 1.698729991912841797e-01
-9.698225185275077820e-03 -3.784256875514984131e-01 -1.553371846675872803e-01
-2.791737020015716553e-02 4.104272127151489258e-01 3.219704702496528625e-02
1.976899802684783936e-02 5.733551383018493652e-01 8.041182160377502441e-02
3.059501387178897858e-02 -2.968608438968658447e-01 -4.068892076611518860e-02
5.105105810798704624e-05 -2.025765478610992432e-01 1.820100992918014526e-01
3.242388367652893066e-02 -1.448756158351898193e-01 7.928367704153060913e-02
-1.721112616360187531e-02 4.616155624389648438e-01 -1.168113499879837036e-01
2.647683769464492798e-02 5.293962955474853516e-01 -4.656282812356948853e-02
3.559477254748344421e-02 1.095536276698112488e-01 -4.725171625614166260e-02
2.050112374126911163e-02 -2.737975120544433594e-01 1.383848190307617188e-01
3.101899661123752594e-02 4.222634732723236084e-01 4.889718815684318542e-02
-5.300162825733423233e-03 2.847633659839630127e-01 1.690025031566619873e-01
3.166132420301437378e-02 -1.612620651721954346e-01 -7.141889631748199463e-02
1.786100864410400391e-02 -2.882283367216587067e-02 -1.620053797960281372e-01
1.670841313898563385e-02 6.718552112579345703e-01 -3.337996453046798706e-02
2.580191567540168762e-02 2.587642073631286621e-01 1.285248398780822754e-01
-5.905301775783300400e-03 2.961756885051727295e-01 -1.737675219774246216e-01
-2.951130643486976624e-02 3.237081468105316162e-01 -7.196134328842163086e-02
-1.874581351876258850e-02 5.807647705078125000e-01 -4.590227082371711731e-02
-2.744038216769695282e-02 -5.293305516242980957e-01 2.112668706104159355e-03
-3.028419986367225647e-02 -3.824768662452697754e-01 6.286466121673583984e-02
-3.496517986059188843e-02 1.571940630674362183e-01 -4.385764524340629578e-02
2.831157296895980835e-02 -2.046577483415603638e-01 1.064232513308525085e-01
3.672721236944198608e-02 2.840918675065040588e-02 -1.743327639997005463e-02
2.343296632170677185e-02 3.392958641052246094e-01 -1.243257373571395874e-01
2.049694582819938660e-02 3.618784844875335693e-01 -1.334631443023681641e-01
-1.770927384495735168e-02 4.245139956474304199e-01 -1.249640882015228271e-01
3.574328124523162842e-02 -1.646671257913112640e-02 5.123030394315719604e-02
-3.629297390580177307e-02 8.374601602554321289e-02 -3.175869211554527283e-02
-2.509711310267448425e-02 4.962984919548034668e-01 -9.009276516735553741e-03
2.798735350370407104e-02 -2.339780032634735107e-01 1.032415479421615601e-01
-2.751312032341957092e-02 2.360366880893707275e-01 -1.127744764089584351e-01
3.026585467159748077e-02 3.859866857528686523e-01 -6.732362508773803711e-02
1.708106137812137604e-02 -5.957584977149963379e-01 -1.428975258022546768e-03
2.239210996776819229e-03 -1.133235394954681396e-01 -1.858117282390594482e-01
2.919037640094757080e-02 -2.694872319698333740e-01 8.385922014713287354e-02
7.165811955928802490e-03 4.493741095066070557e-01 1.465775668621063232e-01
2.436612173914909363e-02 2.469637244939804077e-02 1.468286067247390747e-01
-3.368086367845535278e-02 2.257438600063323975e-01 -4.438940808176994324e-02
2.083210088312625885e-02 -5.071218013763427734e-01 6.242225319147109985e-02
-2.734198793768882751e-02 -8.217552304267883301e-02 -1.342056989669799805e-01
1.069477293640375137e-02 3.399557471275329590e-01 1.616973876953125000e-01
-3.720208629965782166e-02 -1.305757462978363037e-02 -1.614147797226905823e-02
3.600121289491653442e-02 2.385337501764297485e-01 2.286479063332080841e-02
9.991512633860111237e-03 3.405496478080749512e-01 -1.637707650661468506e-01
-3.728430718183517456e-02 -3.456572443246841431e-02 -3.195705357939004898e-03
9.326330386102199554e-03 -6.676007509231567383e-01 1.603051461279392242e-02
-3.479206189513206482e-02 -2.995148003101348877e-01 1.833782158792018890e-02
-2.962100505828857422e-02 2.957017719745635986e-01 6.449405103921890259e-02
3.584472462534904480e-02 7.015836983919143677e-02 5.513581261038780212e-02
-1.888551376760005951e-02 -5.637171268463134766e-01 8.098129928112030029e-02
3.625106438994407654e-02 7.836938649415969849e-02 -3.460565581917762756e-02
-2.691410854458808899e-02 -2.881019115447998047e-01 1.102311089634895325e-01
2.429880388081073761e-02 -4.873399734497070312e-01 1.397557184100151062e-02
-2.780396863818168640e-02 -5.112950205802917480e-01 2.450445480644702911e-02
-2.836196497082710266e-02 4.352959245443344116e-02 1.150471791625022888e-01
1.784326508641242981e-02 -5.643022656440734863e-01 5.067990720272064209e-02
-1.819046400487422943e-02 3.311036527156829834e-01 1.308284997940063477e-01
-2.169148437678813934e-02 5.388730764389038086e-01 2.875015884637832642e-02
-3.038617596030235291e-02 8.457746356725692749e-02 9.776709228754043579e-02
2.972462959587574005e-02 -9.329673647880554199e-02 1.112987548112869263e-01
-2.985277399420738220e-02 -4.690322875976562500e-01 1.989456638693809509e-02
-2.963368408381938934e-02 3.736953437328338623e-01 -4.206698015332221985e-02
3.427551314234733582e-02 1.788416355848312378e-01 7.231678068637847900e-02
2.873135171830654144e-02 1.890395432710647583e-01 1.192781403660774231e-01
-3.055090270936489105e-02 2.961127758026123047e-01 -6.920322030782699585e-02
3.599495440721511841e-02 1.734301596879959106e-01 4.406788945198059082e-02
-3.635001927614212036e-02 -1.892158985137939453e-01 -3.195679187774658203e-02
2.756987139582633972e-02 4.717617034912109375e-01 -6.443966925144195557e-02
-3.524196892976760864e-02 -3.512946516275405884e-02 5.507443845272064209e-02
3.351555764675140381e-02 -1.054784506559371948e-01 -5.986835807561874390e-02
2.559022046625614166e-02 -3.212032914161682129e-01 1.005101501941680908e-01
3.381030261516571045e-02 8.095801621675491333e-02 -7.260201126337051392e-02
2.949107065796852112e-02 -7.008560001850128174e-02 1.150439381599426270e-01
-3.138929232954978943e-02 -4.362875819206237793e-01 6.784952245652675629e-03
1.167827192693948746e-02 -6.184436082839965820e-01 6.028797850012779236e-02
-3.303983435034751892e-02 -6.109446287155151367e-02 8.171678334474563599e-02
-2.675317972898483276e-02 2.304358631372451782e-01 -1.187472045421600342e-01
-1.592274010181427002e-02 -6.521470546722412109e-01 -4.096863418817520142e-02
2.234567888081073761e-02 5.307508111000061035e-01 8.409075438976287842e-02
-2.629259228706359863e-02 -4.949177205562591553e-01 5.848496407270431519e-02
-3.610869497060775757e-02 -1.148151084780693054e-01 3.867080062627792358e-02
1.900504343211650848e-02 -2.716478109359741211e-01 1.445457637310028076e-01
3.036538325250148773e-02 4.223049283027648926e-01 -5.281906574964523315e-02
-3.533541783690452576e-02 -1.138464361429214478e-01 5.246168375015258789e-02
-2.997916936874389648e-02 3.385791182518005371e-01 -5.856466665863990784e-02
-1.242002006620168686e-03 -4.694158434867858887e-01 1.440385878086090088e-01
3.566005453467369080e-02 -1.168561056256294250e-01 -5.296852439641952515e-03
-3.575187921524047852e-02 3.589364886283874512e-02 -5.635527893900871277e-02
2.528539393097162247e-03 -2.208849936723709106e-01 -1.775285750627517700e-01
3.706687688827514648e-02 5.253735929727554321e-02 -1.490885333623737097e-04
-1.881190389394760132e-02 5.624814033508300781e-01 4.629364982247352600e-02
2.869817614555358887e-02 -1.779219657182693481e-01 -9.580162167549133301e-02
-2.578820474445819855e-02 -5.558907985687255859e-01 -1.728033460676670074e-02
-1.656967401504516602e-02 3.402090370655059814e-01 1.352412402629852295e-01
7.497665006667375565e-03 -2.148188650608062744e-01 1.770082265138626099e-01
2.128354273736476898e-02 -2.755489051342010498e-01 -1.242013573646545410e-01
1.914970017969608307e-02 3.790525197982788086e-01 -1.357107162475585938e-01
-1.713025849312543869e-03 6.721298694610595703e-01 -7.686975598335266113e-02
3.450943157076835632e-02 3.183203637599945068e-01 -2.289721928536891937e-02
3.000153787434101105e-02 -1.059362478554248810e-02 1.151065155863761902e-01
2.467603608965873718e-02 3.840721547603607178e-01 1.141057536005973816e-01
2.840428799390792847e-02 5.249901115894317627e-02 1.266550868749618530e-01
-1.634614542126655579e-02 -6.669525504112243652e-01 -9.937318973243236542e-03
3.221410885453224182e-02 3.151150643825531006e-01 7.234867662191390991e-02
-1.205860916525125504e-02 -3.712346553802490234e-01 1.521891504526138306e-01
-2.673967555165290833e-02 4.313395619392395020e-01 3.767648711800575256e-02
3.328628465533256531e-02 3.892427086830139160e-01 1.040805131196975708e-02
2.638156339526176453e-02 -3.574110269546508789e-01 -6.874121725559234619e-02
-3.590269386768341064e-02 -2.216624617576599121e-01 -3.453015163540840149e-02
2.362751029431819916e-02 -4.549820423126220703e-01 -5.103154480457305908e-02
-1.897329278290271759e-02 3.045206964015960693e-01 1.324491500854492188e-01
-2.555976621806621552e-02 4.023482203483581543e-01 6.752046197652816772e-02
-2.154164575040340424e-02 -3.245937526226043701e-01 1.315604448318481445e-01
2.765159122645854950e-02 -2.507053613662719727e-01 1.022715196013450623e-01
-3.160397708415985107e-02 3.171242773532867432e-01 2.113346010446548462e-02
-2.457175590097904205e-02 4.248808324337005615e-01 -8.324392139911651611e-02
2.309459075331687927e-02 5.221057534217834473e-01 8.291836827993392944e-02
9.245939552783966064e-03 6.335306763648986816e-01 8.797554671764373779e-02
2.995198592543601990e-02 3.611825108528137207e-01 -7.736401259899139404e-02
-3.040262125432491302e-02 3.172028064727783203e-01 -6.243988871574401855e-02
-2.043796703219413757e-02 5.625763535499572754e-01 -3.944598138332366943e-02
3.507246822118759155e-02 2.541277408599853516e-01 -3.562751039862632751e-02
2.309977263212203979e-02 -1.585605889558792114e-01 1.423965990543365479e-01
-3.430258855223655701e-02 2.278740555047988892e-01 -3.479689476080238819e-04
-1.339693088084459305e-02 -5.938351154327392578e-01 9.061453491449356079e-02
-1.352610159665346146e-02 6.411199569702148438e-01 3.003686293959617615e-02
-1.227170322090387344e-02 -4.494844973087310791e-01 1.373350471258163452e-01
1.996137760579586029e-02 -1.379795186221599579e-02 -1.555979847908020020e-01
3.487979620695114136e-02 3.398585692048072815e-02 6.989938765764236450e-02
-2.833740599453449249e-02 3.029820919036865234e-01 -9.130764752626419067e-02
3.020252659916877747e-02 1.730150133371353149e-01 1.108280941843986511e-01
2.852063067257404327e-02 -1.367368847131729126e-01 1.150609925389289856e-01
1.266107894480228424e-02 6.248215585947036743e-02 1.796693205833435059e-01
3.420750796794891357e-02 -5.720269866287708282e-03 7.661742717027664185e-02
-2.391143888235092163e-02 4.188805222511291504e-01 7.577160000801086426e-02
-3.351797908544540405e-02 1.989224851131439209e-01 -5.900629982352256775e-02
-2.500564418733119965e-02 1.251421421766281128e-01 -1.405601203441619873e-01
1.798593439161777496e-02 -3.930166959762573242e-01 1.247169971466064453e-01
3.127842023968696594e-02 -3.049668073654174805e-01 3.403459489345550537e-02
3.425191715359687805e-02 4.178309440612792969e-02 -6.661917269229888916e-02
8.578317239880561829e-03 6.473074555397033691e-01 -8.779075741767883301e-02
-1.627573929727077484e-02 -4.891942143440246582e-01 -1.187942698597908020e-01
3.368171304464340210e-02 -1.113021746277809143e-01 -5.635854601860046387e-02
7.448697462677955627e-03 -1.729444861412048340e-01 1.804002970457077026e-01
-5.623711738735437393e-03 -5.736464858055114746e-01 -1.094467043876647949e-01
4.360951017588376999e-03 -1.067970767617225647e-01 -1.845500618219375610e-01
1.820859871804714203e-02 5.891937613487243652e-01 8.095004409551620483e-02
2.639959007501602173e-02 3.257464468479156494e-01 1.158773079514503479e-01
-2.255429327487945557e-02 4.751145541667938232e-01 6.302903592586517334e-02
2.745592966675758362e-02 3.506217598915100098e-01 1.049369871616363525e-01
-3.448101878166198730e-02 -7.072719931602478027e-02 -7.934795320034027100e-02
2.187523804605007172e-02 2.086636275053024292e-01 1.498718112707138062e-01
-3.413253277540206909e-02 -3.046061694622039795e-01 3.376884013414382935e-02
-1.571222022175788879e-02 1.339806616306304932e-01 -1.718645542860031128e-01
5.482883192598819733e-03 6.222262382507324219e-01 -1.033061742782592773e-01
-2.367579378187656403e-02 1.719229221343994141e-01 -1.425891667604446411e-01
3.706215694546699524e-02 8.768216520547866821e-02 1.598852127790451050e-02
1.470496784895658493e-02 -3.667080998420715332e-01 -1.331325620412826538e-01
1.789467781782150269e-02 -3.762499690055847168e-01 1.290964335203170776e-01
1.093640178442001343e-02 -1.822315603494644165e-01 1.750443726778030396e-01
-1.852685771882534027e-02 -3.028037548065185547e-01 1.453777700662612915e-01
2.158954925835132599e-02 -1.570075303316116333e-01 -1.395763903856277466e-01
2.998501062393188477e-02 3.536787927150726318e-01 8.520284295082092285e-02
-2.330352365970611572e-02 1.094947382807731628e-01 -1.492337137460708618e-01
-2.545522898435592651e-02 -4.015201628208160400e-01 9.741269797086715698e-02
-2.596294879913330078e-02 4.573084712028503418e-01 3.076059184968471527e-02
-2.769618853926658630e-02 -2.972518205642700195e-01 1.039473265409469604e-01
-3.078992292284965515e-02 -2.255087196826934814e-01 9.141337871551513672e-02
-3.251385316252708435e-02 -2.629661858081817627e-01 6.935597956180572510e-02
3.054905124008655548e-02 4.033967554569244385e-01 6.404124945402145386e-02
-2.034642547369003296e-02 5.582199692726135254e-01 -4.609670490026473999e-02
3.123304247856140137e-02 -2.676431834697723389e-01 5.843824520707130432e-02
-3.379468619823455811e-02 7.556840777397155762e-02 6.553152948617935181e-02
3.643957525491714478e-02 2.083353400230407715e-01 -5.574811249971389771e-03
-2.323255501687526703e-02 -8.808405697345733643e-02 -1.524903923273086548e-01
-2.509445510804653168e-02 4.378221333026885986e-01 -7.210630178451538086e-02
2.127933129668235779e-02 6.342253684997558594e-01 -1.992439664900302887e-02
-2.786547690629959106e-02 4.277684986591339111e-01 1.637072116136550903e-02
-2.275693230330944061e-02 1.843962222337722778e-01 1.332049667835235596e-01
-1.798289455473423004e-02 -5.785754919052124023e-01 7.878047972917556763e-02
-6.541966460645198822e-03 6.324650049209594727e-01 -8.888894319534301758e-02
1.147571764886379242e-02 -2.723612189292907715e-01 -1.582500040531158447e-01
2.923234738409519196e-02 -2.459833323955535889e-01 8.987750858068466187e-02
1.752997748553752899e-02 -5.105650424957275391e-01 -7.552920281887054443e-02
-2.697349153459072113e-02 1.292418986558914185e-01 -1.299953907728195190e-01
-1.987850479781627655e-02 -6.237699389457702637e-01 3.253111243247985840e-02
3.218558803200721741e-02 4.282315671443939209e-01 2.602445194497704506e-03
1.965460926294326782e-02 6.292342543601989746e-01 -4.830678179860115051e-02
1.476890686899423599e-02 1.342139989137649536e-01 -1.705764830112457275e-01
9.175224229693412781e-03 -4.088124334812164307e-01 1.471198946237564087e-01
3.175292536616325378e-02 3.035115897655487061e-01 8.011221885681152344e-02
-2.133278362452983856e-02 1.577237546443939209e-01 -1.534436792135238647e-01
1.204947661608457565e-02 -8.244951814413070679e-02 1.791122406721115112e-01
-1.149455551058053970e-02 -3.772011101245880127e-01 1.522983461618423462e-01
-3.037290833890438080e-02 1.472596377134323120e-01 -1.051460504531860352e-01
5.093645304441452026e-03 -4.132210910320281982e-01 -1.463554352521896362e-01
3.414762765169143677e-02 -1.992325186729431152e-01 -1.073666941374540329e-02
2.994515374302864075e-02 2.728660404682159424e-01 -9.417427331209182739e-02
-3.193617612123489380e-02 2.813204228878021240e-01 3.674947097897529602e-02
-3.641160205006599426e-02 8.393496274948120117e-02 9.999620728194713593e-03
-2.789059467613697052e-02 2.828080654144287109e-01 -1.003597900271415710e-01
2.472440898418426514e-02 -2.794601917266845703e-01 -1.042735800147056580e-01
-2.363052032887935638e-02 2.866199314594268799e-01 1.134128123521804810e-01
-1.371428556740283966e-02 -3.660680949687957764e-01 1.495499908924102783e-01
-1.788263767957687378e-02 2.373469471931457520e-01 -1.573227345943450928e-01
2.776414155960083008e-02 2.777651250362396240e-01 -1.090117394924163818e-01
2.856876328587532043e-02 4.885318875312805176e-01 -4.356364160776138306e-02
-1.554343756288290024e-02 6.828029453754425049e-02 -1.751000285148620605e-01
1.580592058598995209e-02 -6.030136942863464355e-01 -2.073997445404529572e-02
3.996249753981828690e-03 -3.750546276569366455e-01 -1.551812440156936646e-01
3.145296871662139893e-02 7.420226186513900757e-02 1.057519763708114624e-01
7.623860612511634827e-03 -6.751954555511474609e-01 2.616781182587146759e-02
-9.015732444822788239e-03 -6.448501348495483398e-01 7.677940279245376587e-02
1.258232071995735168e-02 -6.306269019842147827e-02 1.788907945156097412e-01
-2.533278800547122955e-02 3.438312709331512451e-01 -1.042731180787086487e-01
1.307614985853433609e-02 -6.369811892509460449e-01 1.822715811431407928e-02
-2.151218988001346588e-02 3.182530701160430908e-01 1.184756308794021606e-01
-7.565893232822418213e-03 -1.905333623290061951e-02 1.840000301599502563e-01
2.344389259815216064e-02 2.947762608528137207e-01 -1.302991658449172974e-01
-3.454880416393280029e-02 -2.304056733846664429e-01 4.901414364576339722e-02
2.476879954338073730e-02 4.357217848300933838e-01 -9.799353778362274170e-02
2.848164550960063934e-02 -9.130707010626792908e-03 -1.149692162871360779e-01
3.318509086966514587e-02 1.603601574897766113e-01 -7.668023556470870972e-02
-2.694226615130901337e-02 4.340794682502746582e-01 3.198479861021041870e-02
-2.847079932689666748e-02 4.222314655780792236e-01 -1.341498922556638718e-02
3.485641255974769592e-02 1.802609860897064209e-01 6.408253312110900879e-02
-3.233876079320907593e-02 -2.647264301776885986e-01 -8.138102293014526367e-02
3.650846704840660095e-02 -3.943438827991485596e-02 -7.306827232241630554e-03
2.306567132472991943e-02 3.061050474643707275e-01 -1.306154280900955200e-01
-2.428610622882843018e-02 4.485100209712982178e-01 5.930230021476745605e-02
3.325387835502624512e-02 3.915022015571594238e-01 3.186604473739862442e-03
-1.535948272794485092e-02 5.637667775154113770e-01 7.291427254676818848e-02
-3.134378697723150253e-03 6.803264021873474121e-01 -6.843093037605285645e-02
-1.814151997677981853e-03 3.944581151008605957e-01 -1.629078686237335205e-01
-1.396843045949935913e-02 6.465839743614196777e-01 -2.913926355540752411e-02
-1.869895868003368378e-02 -5.986703038215637207e-01 6.378831714391708374e-02
-3.485637530684471130e-02 1.858586370944976807e-01 1.533962506800889969e-02
-1.897178776562213898e-02 -1.208918020129203796e-01 1.581426411867141724e-01
3.237647935748100281e-02 -1.992336511611938477e-01 6.633313745260238647e-02
-3.011484257876873016e-02 -4.932962357997894287e-02 -1.182996928691864014e-01
2.426776848733425140e-02 5.994006991386413574e-01 -1.244491431862115860e-03
2.499227970838546753e-02 -4.315182566642761230e-01 6.228253990411758423e-02
-5.882009863853454590e-03 6.973556876182556152e-01 2.936614491045475006e-02
-3.159359842538833618e-02 -3.893375694751739502e-01 4.234658181667327881e-02
-1.785080879926681519e-02 4.443090558052062988e-01 -1.190147921442985535e-01
2.708337269723415375e-02 4.228450655937194824e-01 -8.547331392765045166e-02
3.679407387971878052e-02 1.147635728120803833e-01 2.891905605792999268e-02
-3.021560236811637878e-02 -3.986145853996276855e-01 -6.576248258352279663e-02
-2.526790276169776917e-02 -4.854436814785003662e-01 -7.721891254186630249e-02
-2.420241571962833405e-02 -5.835028886795043945e-01 -5.559020675718784332e-03
-2.381479367613792419e-02 2.124177068471908569e-01 1.245289146900177002e-01
3.402162715792655945e-02 2.363466098904609680e-02 8.053304255008697510e-02
-2.812413871288299561e-02 -4.139875769615173340e-01 -8.100167661905288696e-02
2.049010805785655975e-02 1.976298391819000244e-01 1.553708910942077637e-01
-2.943114936351776123e-02 7.717922329902648926e-02 -1.190069019794464111e-01
1.507015153765678406e-02 2.913750708103179932e-01 1.605683416128158569e-01
-1.168489083647727966e-02 3.300441801548004150e-01 1.514153331518173218e-01
-3.176939487457275391e-02 1.678605973720550537e-01 -8.930205553770065308e-02
-3.572887554764747620e-02 -1.057860478758811951e-01 4.647061228752136230e-02
3.273242712020874023e-02 -1.633021384477615356e-01 7.129150629043579102e-02
-1.014737971127033234e-02 2.083858549594879150e-01 -1.772846132516860962e-01
-3.257141634821891785e-02 2.999666333198547363e-01 -1.494825538247823715e-02
1.547818910330533981e-02 6.009342670440673828e-01 -8.919792622327804565e-02
1.107662171125411987e-02 2.005791068077087402e-01 1.758081763982772827e-01
3.479837626218795776e-02 -1.746489107608795166e-01 9.561719372868537903e-03
-1.929549314081668854e-02 4.828422069549560547e-01 8.461154997348785400e-02
1.265446189790964127e-02 -3.409437835216522217e-01 1.524062901735305786e-01
-2.807721123099327087e-02 3.770403936505317688e-02 1.171408593654632568e-01
1.931437291204929352e-02 6.375375390052795410e-01 -4.423255473375320435e-02
-1.755279861390590668e-02 -7.875669747591018677e-02 1.635071486234664917e-01
-3.049916028976440430e-02 -4.323247671127319336e-01 -4.468566179275512695e-02
2.559874579310417175e-02 -4.607990682125091553e-01 1.874098740518093109e-02
-3.494537994265556335e-02 1.408809125423431396e-01 3.385261446237564087e-02
2.621439471840858459e-02 -4.497987329959869385e-01 5.453403107821941376e-03
2.178097516298294067e-02 -9.009689837694168091e-02 1.531979292631149292e-01
1.163383573293685913e-02 7.120312452316284180e-01 -1.889139600098133087e-02
-3.358884900808334351e-02 -3.598945736885070801e-01 -2.218925207853317261e-02
2.610931731760501862e-02 5.698540806770324707e-01 2.042717998847365379e-03
1.122352201491594315e-02 5.973454117774963379e-01 9.995069354772567749e-02
3.631739318370819092e-02 1.259084194898605347e-01 -3.120785020291805267e-02
-1.127143390476703644e-02 -1.223073080182075500e-01 1.766593009233474731e-01
-2.269557304680347443e-02 -1.982520371675491333e-01 1.405833512544631958e-01
-3.097072429955005646e-02 3.529879152774810791e-01 -8.718600729480385780e-04
1.158567378297448158e-03 2.534803152084350586e-01 -1.805269271135330200e-01
-3.625522926449775696e-02 1.004127413034439087e-01 -2.506954222917556763e-02
-2.950360067188739777e-02 3.176284730434417725e-01 5.802562087774276733e-02
-2.254073042422533035e-03 -1.293758302927017212e-01 1.858966201543807983e-01
-1.825064234435558319e-02 -2.792549729347229004e-01 -1.538075059652328491e-01
2.363996207714080811e-02 4.452484250068664551e-01 -1.022247821092605591e-01
-3.178928047418594360e-02 1.842603832483291626e-02 -1.047249585390090942e-01
2.051732502877712250e-02 -4.355968534946441650e-01 9.922175854444503784e-02
2.400289848446846008e-02 5.678702145814895630e-02 -1.408068686723709106e-01
3.693617135286331177e-02 1.362989097833633423e-01 1.668065786361694336e-02
1.653100177645683289e-02 -5.925751328468322754e-01 -2.402220293879508972e-02
2.451762557029724121e-02 -3.559498786926269531e-01 -8.560448884963989258e-02
-3.384625166654586792e-02 -3.437410593032836914e-01 1.821094192564487457e-02
-3.206472471356391907e-02 -3.998292684555053711e-01 2.629906311631202698e-02
-2.085648849606513977e-02 2.169971168041229248e-01 -1.494532227516174316e-01
-2.194766141474246979e-02 4.022071361541748047e-01 9.551268815994262695e-02
-3.439278155565261841e-02 4.827546328306198120e-02 6.108903884887695312e-02
-1.502327993512153625e-02 -6.520173549652099609e-01 -4.733027890324592590e-02
-5.348707083612680435e-03 -3.985576331615447998e-01 -1.549091339111328125e-01
2.693282626569271088e-02 3.073049150407314301e-02 1.347165107727050781e-01
1.855508238077163696e-02 -4.162831306457519531e-01 -1.048081889748573303e-01
-1.358738541603088379e-02 6.554234027862548828e-01 -6.157640367746353149e-03
3.283244371414184570e-02 3.824048209935426712e-03 9.239617735147476196e-02
-2.913667261600494385e-02 -4.120642542839050293e-01 6.485432386398315430e-02
2.838080935180187225e-02 3.823515176773071289e-01 9.120857715606689453e-02
3.065419010818004608e-02 4.222546517848968506e-01 5.450197681784629822e-02
-2.366823144257068634e-02 -2.407210469245910645e-01 1.327444463968276978e-01
3.189189359545707703e-02 -1.141752898693084717e-01 9.031695127487182617e-02
-2.776223048567771912e-02 3.450631201267242432e-01 6.753675639629364014e-02
2.629263326525688171e-02 2.209022454917430878e-02 1.378870308399200439e-01
-3.619215637445449829e-02 -1.370209753513336182e-01 3.457579389214515686e-02
-7.583852391690015793e-03 5.450831055641174316e-01 1.112679839134216309e-01
-8.588766679167747498e-03 4.062416851520538330e-01 1.447659879922866821e-01
-3.114124014973640442e-02 -3.915239572525024414e-01 4.840473458170890808e-02
-2.216231264173984528e-02 -5.311086773872375488e-01 7.584883272647857666e-02
-1.828776858747005463e-02 4.076326787471771240e-01 1.136656031012535095e-01
-3.017566166818141937e-02 -4.584535062313079834e-01 2.272363193333148956e-02
2.138086780905723572e-02 -3.471921086311340332e-01 -1.084950789809226990e-01
-1.955045945942401886e-02 -3.805720061063766479e-02 -1.658804565668106079e-01
-2.342312969267368317e-02 9.242371469736099243e-02 1.384595483541488647e-01
-3.347417339682579041e-02 -2.939082682132720947e-03 7.594060152769088745e-02
-4.743140656501054764e-03 6.975558400154113770e-01 3.603149205446243286e-02
-1.281878072768449783e-02 4.714409410953521729e-01 -1.300930529832839966e-01
-3.133889287710189819e-02 2.580632865428924561e-01 5.586815625429153442e-02
-4.638492129743099213e-03 -5.354284644126892090e-01 -1.224954128265380859e-01
-2.466451004147529602e-02 7.140382379293441772e-02 1.339693069458007812e-01
1.887520309537649155e-03 -8.895622938871383667e-02 -1.872036457061767578e-01
-1.946778409183025360e-02 4.414345026016235352e-01 9.812033921480178833e-02
-3.089830838143825531e-02 2.176504880189895630e-01 -8.818992227315902710e-02
2.928701601922512054e-02 -2.113863080739974976e-01 9.728606045246124268e-02
-3.325580060482025146e-02 -3.676851987838745117e-01 1.786018721759319305e-02
2.441990561783313751e-02 3.753378391265869141e-01 -1.132900342345237732e-01
-2.774598635733127594e-02 -5.223166346549987793e-01 -1.260064356029033661e-02
-2.770796231925487518e-02 2.753962017595767975e-02 -1.320377439260482788e-01
3.185782581567764282e-02 3.989568948745727539e-01 -4.053684696555137634e-02
2.754947356879711151e-02 3.846549093723297119e-01 -9.172896295785903931e-02
-2.751684375107288361e-02 -4.709110260009765625e-01 -6.344781816005706787e-02
3.626639395952224731e-02 2.294284552335739136e-01 -7.570313755422830582e-05
2.753948606550693512e-02 -1.020605862140655518e-01 1.249734759330749512e-01
1.493103150278329849e-02 -5.834672451019287109e-01 -5.146778374910354614e-02
1.919500902295112610e-02 -3.359247148036956787e-01 -1.220327392220497131e-01
3.365289047360420227e-02 2.446137219667434692e-01 -6.136049702763557434e-02
-1.969395950436592102e-02 4.201729297637939453e-01 1.032968237996101379e-01
-1.902898587286472321e-02 -3.503956794738769531e-01 -1.412763446569442749e-01
-3.724868968129158020e-02 -1.824809983372688293e-02 -1.123137306421995163e-02
3.237285465002059937e-02 -2.174439281225204468e-01 6.022063270211219788e-02
2.361316606402397156e-02 -4.851585924625396729e-01 -2.714607119560241699e-02
-2.921079657971858978e-02 1.624559164047241211e-01 9.768880158662796021e-02
-1.632844656705856323e-02 -1.326104253530502319e-01 1.653130352497100830e-01
2.754273824393749237e-02 4.971363246440887451e-01 -5.254380032420158386e-02
-3.363775089383125305e-02 -2.574693858623504639e-01 5.661940574645996094e-02
2.477288804948329926e-02 2.305166572332382202e-01 1.363856345415115356e-01
-3.069982677698135376e-02 -1.379253566265106201e-01 -1.110254600644111633e-01
2.183160185813903809e-02 -4.963234961032867432e-01 5.856465548276901245e-02
2.830207534134387970e-02 -1.668318063020706177e-01 -1.006312295794487000e-01
2.558241598308086395e-02 -4.627326428890228271e-01 3.141260240226984024e-03
-3.305391967296600342e-02 -3.790019154548645020e-01 1.368713751435279846e-02
2.890269272029399872e-02 4.992707371711730957e-01 3.332516178488731384e-02
-2.628367580473423004e-02 -1.616739183664321899e-01 1.262833923101425171e-01
3.544664755463600159e-02 -1.280832439661026001e-01 -8.674813434481620789e-03
-3.437047451734542847e-02 -2.956211864948272705e-01 3.236782550811767578e-02
-7.600942626595497131e-03 3.628792762756347656e-01 1.545038223266601562e-01
2.928588725626468658e-02 4.869996309280395508e-01 3.641211986541748047e-02
2.418344840407371521e-02 -1.649981737136840820e-01 1.367266327142715454e-01
-1.772613637149333954e-02 -6.547589898109436035e-01 1.421602163463830948e-02
2.102952450513839722e-02 5.380068421363830566e-01 -8.805342018604278564e-02
-2.023059502243995667e-02 3.169197142124176025e-01 1.248359233140945435e-01
7.248078472912311554e-03 -6.805981397628784180e-01 1.662865094840526581e-02
-3.660397976636886597e-02 7.260298728942871094e-02 -2.121411077678203583e-02
-3.243152797222137451e-02 2.028124183416366577e-01 -7.415794581174850464e-02
-3.607342019677162170e-02 -5.480929277837276459e-03 -5.419070273637771606e-02
1.154073420912027359e-02 -2.607295513153076172e-01 1.662328541278839111e-01
-1.328273396939039230e-02 2.412858456373214722e-01 -1.687042266130447388e-01
-2.280241064727306366e-02 -3.625072836875915527e-01 -1.254578530788421631e-01
-3.074884600937366486e-02 1.406832486391067505e-01 8.818676322698593140e-02
-2.101504057645797729e-02 1.231917887926101685e-01 1.463853120803833008e-01
3.706150501966476440e-02 1.159144267439842224e-01 9.171160869300365448e-03
3.625818714499473572e-02 3.310158848762512207e-02 4.503999277949333191e-02
3.561983257532119751e-02 1.935590058565139771e-01 4.865259677171707153e-02
-2.958189509809017181e-02 -3.297610878944396973e-01 8.398081362247467041e-02
1.486338791437447071e-03 6.602572798728942871e-01 7.827926427125930786e-02
-2.990403026342391968e-02 3.807901740074157715e-01 -2.474437281489372253e-02
-3.375639393925666809e-02 -1.381809264421463013e-01 -8.410348743200302124e-02
-3.544981405138969421e-02 -2.523778975009918213e-01 2.327098697423934937e-02
2.842274308204650879e-02 1.232201680541038513e-01 -1.166206821799278259e-01
3.096116892993450165e-02 4.563036561012268066e-01 2.375355549156665802e-02
1.763183809816837311e-02 3.924768790602684021e-02 1.695125550031661987e-01
-3.206272143870592117e-03 6.660970449447631836e-01 -7.792304456233978271e-02
-3.034214116632938385e-02 1.931987255811691284e-01 8.313491940498352051e-02
2.804131247103214264e-02 5.327990055084228516e-01 8.390363305807113647e-03
2.610714361071586609e-02 5.502352714538574219e-01 3.824337571859359741e-02
-3.120722249150276184e-02 -4.129251837730407715e-01 -4.429813101887702942e-02
3.052317909896373749e-02 1.996181756258010864e-01 1.062225252389907837e-01
-3.122350014746189117e-02 -2.815906107425689697e-01 -8.885715156793594360e-02
-3.526331111788749695e-02 1.627406030893325806e-01 1.486303657293319702e-02
1.835248619318008423e-02 -5.622912049293518066e-01 -3.322210162878036499e-02
2.551562897861003876e-02 -3.161052763462066650e-01 -8.975034952163696289e-02
3.334248438477516174e-02 3.629944622516632080e-01 -2.882908657193183899e-02
-3.389111533761024475e-02 1.459770351648330688e-01 -6.768818199634552002e-02
-3.391600400209426880e-02 5.063427239656448364e-02 6.692711263895034790e-02
-3.348521143198013306e-02 -3.452247679233551025e-01 2.795512042939662933e-02
-2.681223861873149872e-02 3.325270116329193115e-01 -9.611266851425170898e-02
1.267903484404087067e-02 -5.443181991577148438e-01 9.761447459459304810e-02
2.933621965348720551e-02 -1.130843684077262878e-01 -1.003495007753372192e-01
-2.463828772306442261e-02 3.531653285026550293e-01 -1.065863594412803650e-01
2.486175112426280975e-02 3.822866380214691162e-01 -1.095273047685623169e-01
-3.589900583028793335e-02 1.341759264469146729e-01 -2.045285888016223907e-02
-9.038474410772323608e-03 5.864312648773193359e-01 9.146042913198471069e-02
-3.077481687068939209e-02 -4.525058269500732422e-01 8.442046120762825012e-03
-2.392749302089214325e-02 3.147299885749816895e-01 -1.200602203607559204e-01
-9.363028220832347870e-03 -2.044823914766311646e-01 1.752066612243652344e-01
2.549542672932147980e-02 1.775517463684082031e-01 -1.307448446750640869e-01
1.782300323247909546e-02 5.035793185234069824e-01 -1.138605549931526184e-01
3.011167794466018677e-02 3.117821812629699707e-01 9.340219199657440186e-02
-1.907478831708431244e-02 -5.004438161849975586e-01 1.035887748003005981e-01
-1.982350274920463562e-02 3.774794042110443115e-01 1.138495728373527527e-01
-3.646819293498992920e-02 -7.156167924404144287e-02 -4.733772575855255127e-02
2.054905518889427185e-02 -4.261780977249145508e-01 -9.020712971687316895e-02
-2.273727022111415863e-02 3.765291571617126465e-01 -1.123924627900123596e-01
9.417276829481124878e-03 -3.864277601242065430e-01 1.510819196701049805e-01
3.870606306008994579e-04 5.777105093002319336e-01 1.129442453384399414e-01
2.551954425871372223e-02 -3.473347127437591553e-01 9.334022551774978638e-02
2.047098986804485321e-02 4.806989133358001709e-01 1.101608723402023315e-01
9.598844684660434723e-03 -2.813864648342132568e-01 1.670980900526046753e-01
2.292774245142936707e-02 5.323312282562255859e-01 -7.833848893642425537e-02
3.701502084732055664e-02 3.684444725513458252e-02 -1.763048348948359489e-03
-2.628304995596408844e-02 3.230960965156555176e-01 8.763071149587631226e-02
1.599322818219661713e-02 -5.808457136154174805e-01 5.594443157315254211e-02
1.085521094501018524e-02 2.853264510631561279e-01 -1.685987114906311035e-01
-2.512653544545173645e-02 4.924746155738830566e-01 7.117266766726970673e-03
3.562498837709426880e-02 -1.231068447232246399e-01 7.716397522017359734e-05
2.705410867929458618e-02 -1.509316414594650269e-01 -1.115286275744438171e-01
-1.681975834071636200e-02 4.862168729305267334e-01 -1.108102202415466309e-01
1.357542164623737335e-02 -3.084786236286163330e-01 -1.474559754133224487e-01
-1.941282115876674652e-02 -6.407364010810852051e-01 -8.852582424879074097e-03
2.708967775106430054e-02 -4.180347919464111328e-01 3.648782148957252502e-02
2.025578171014785767e-02 5.475872159004211426e-01 8.889242261648178101e-02
-3.450698778033256531e-02 2.128401100635528564e-01 -2.473594062030315399e-02
-6.498519331216812134e-03 7.066318392753601074e-01 -8.439047960564494133e-04
3.502861782908439636e-02 4.031026363372802734e-02 6.798925250768661499e-02
1.683776453137397766e-02 -5.791848301887512207e-01 4.827870801091194153e-02
-1.349412929266691208e-02 -5.118790268898010254e-01 1.191169321537017822e-01
1.411546673625707626e-02 -6.897428631782531738e-02 -1.705458164215087891e-01
2.898731827735900879e-02 3.407263010740280151e-02 1.230114400386810303e-01
-6.862777285277843475e-03 2.781366109848022461e-01 1.677478104829788208e-01
-2.621477283537387848e-02 -2.340325862169265747e-01 -1.292774230241775513e-01
-1.672227494418621063e-02 5.535572171211242676e-01 -8.368257433176040649e-02
3.349640965461730957e-02 -1.560381427407264709e-02 -7.216060161590576172e-02
2.516209706664085388e-02 5.478708148002624512e-01 5.278450250625610352e-02
3.170584142208099365e-02 4.041660428047180176e-01 4.696097224950790405e-02
-1.524003781378269196e-02 8.107247948646545410e-02 -1.753590255975723267e-01
-3.352152556180953979e-02 1.742088235914707184e-03 -8.931504935026168823e-02
3.244080021977424622e-02 -2.309044897556304932e-01 -3.922112658619880676e-02
3.407302871346473694e-02 1.234381422400474548e-01 7.934615015983581543e-02
-1.184453256428241730e-02 6.629891395568847656e-01 2.039398625493049622e-02
2.845759317278862000e-02 1.106857806444168091e-01 1.253785490989685059e-01
1.350077427923679352e-02 -1.948804408311843872e-01 -1.626306921243667603e-01
-3.405285999178886414e-02 -3.187617361545562744e-01 2.877877280116081238e-02
1.844337023794651031e-02 -1.967808157205581665e-01 1.559863388538360596e-01
-1.752707175910472870e-02 -6.576446294784545898e-01 -9.826598688960075378e-03
2.957354113459587097e-02 -3.287525475025177002e-01 5.534523725509643555e-02
-1.267373375594615936e-02 -2.923063337802886963e-01 1.615914553403854370e-01
2.481014281511306763e-02 -3.273071050643920898e-01 -9.191215038299560547e-02
-2.433905377984046936e-02 4.996135830879211426e-01 -3.709394857287406921e-02
6.833767984062433243e-03 1.190744489431381226e-01 -1.846486926078796387e-01
-3.119618631899356842e-02 -4.416753947734832764e-01 -1.476327795535326004e-02
-2.477665990591049194e-02 -5.467595458030700684e-01 4.345323145389556885e-02
9.232593700289726257e-03 -3.564223647117614746e-01 -1.499280631542205811e-01
-2.954919636249542236e-02 1.772832423448562622e-01 9.276654571294784546e-02
-3.547107800841331482e-02 1.141869202256202698e-01 -4.635728523135185242e-02
3.707396239042282104e-02 1.033663302659988403e-01 -1.918470952659845352e-04
-1.944880373775959015e-02 3.750573396682739258e-01 -1.293793469667434692e-01
3.576136007905006409e-02 2.484096884727478027e-01 -1.806532219052314758e-02
-3.532851114869117737e-02 -2.301118969917297363e-01 3.449469059705734253e-02
2.390910126268863678e-02 -4.942683875560760498e-01 -1.065742224454879761e-03
-3.414678201079368591e-02 -1.510063409805297852e-01 -7.850173860788345337e-02
-2.393489703536033630e-02 -3.966961205005645752e-01 -1.129615157842636108e-01
-3.390206769108772278e-02 2.541558071970939636e-02 6.937059015035629272e-02
3.678732737898826599e-02 1.464359313249588013e-01 -1.197444181889295578e-02
3.170237317681312561e-02 4.083268046379089355e-01 -3.838432207703590393e-02
-2.459033578634262085e-02 -5.565482974052429199e-01 -4.171879217028617859e-02
3.286035731434822083e-02 -1.984517425298690796e-01 5.898161232471466064e-02
3.313215449452400208e-02 1.974367350339889526e-01 -7.404311001300811768e-02
1.589375920593738556e-02 -2.394659630954265594e-02 -1.678340882062911987e-01
1.821820251643657684e-02 4.690473973751068115e-01 1.215745732188224792e-01
3.235178813338279724e-02 3.828527629375457764e-01 4.645235463976860046e-02
3.615097701549530029e-02 6.851828098297119141e-02 4.892575368285179138e-02
-3.527626022696495056e-02 -1.779445260763168335e-01 -5.930341035127639771e-02
-2.161319926381111145e-02 -5.996440052986145020e-01 3.704191744327545166e-02
-1.272594090551137924e-02 -5.123728513717651367e-01 -1.206972971558570862e-01
-1.579348184168338776e-02 -5.665289163589477539e-01 9.368846565485000610e-02
-2.152191475033760071e-02 -5.951992869377136230e-01 4.240693151950836182e-02
6.717581767588853836e-03 -2.565835416316986084e-01 1.737603992223739624e-01
-3.698765859007835388e-02 -1.547102183103561401e-01 -7.368249818682670593e-03
-3.462073951959609985e-02 1.045009866356849670e-01 -6.504626572132110596e-02
7.250564638525247574e-03 5.216234326362609863e-01 -1.340630501508712769e-01
1.643824361963197589e-04 5.605267882347106934e-01 1.184665784239768982e-01
2.557132765650749207e-02 5.778468847274780273e-01 9.987169876694679260e-03
2.271254546940326691e-02 -7.966073602437973022e-02 1.502026766538619995e-01
-3.634789586067199707e-02 1.844492927193641663e-02 -4.572505503892898560e-02
-2.399309165775775909e-02 5.120329856872558594e-01 1.113874092698097229e-02
-2.304453589022159576e-02 -5.639162659645080566e-01 5.072451755404472351e-02
-2.992546930909156799e-02 3.278752863407135010e-01 -6.462536007165908813e-02
2.488530986011028290e-02 5.845945477485656738e-01 -1.923259161412715912e-02
-3.464205190539360046e-02 7.903403043746948242e-02 5.346252396702766418e-02
-3.027377836406230927e-02 7.617679238319396973e-02 9.939861297607421875e-02
2.852135710418224335e-02 3.828884661197662354e-01 -8.457578718662261963e-02
3.681199252605438232e-02 1.586614549160003662e-01 -6.232973188161849976e-03
-3.480739891529083252e-02 -3.817760199308395386e-02 -7.543490082025527954e-02
2.954324334859848022e-02 4.588175117969512939e-01 -4.654525592923164368e-02
2.106836531311273575e-03 6.493851542472839355e-01 8.438614010810852051e-02
