1.211137324571609497e-01 -3.574756383895874023e-01 -1.148452889174222946e-02
2.618958801031112671e-02 2.950276136398315430e-01 -1.334299147129058838e-02
-5.569265782833099365e-02 1.247523650527000427e-01 -1.550967991352081299e-02
-6.968179717659950256e-03 2.712793052196502686e-01 -1.500414963811635971e-02
1.635894924402236938e-01 -3.517484664916992188e-01 5.026762839406728745e-03
-6.559120863676071167e-02 3.465674221515655518e-01 -1.449009217321872711e-02
-1.454783529043197632e-01 5.002531409263610840e-01 -8.685013279318809509e-03
-4.365532472729682922e-02 5.340400338172912598e-01 1.211461890488862991e-02
5.510495975613594055e-02 -7.446190714836120605e-01 6.975385360419750214e-03
1.024420782923698425e-01 -5.831705331802368164e-01 1.128843519836664200e-02
-2.752886898815631866e-02 -1.044414192438125610e-02 -1.603677310049533844e-02
9.118429571390151978e-02 3.105720281600952148e-01 3.344996599480509758e-03
-8.024506270885467529e-03 2.470057010650634766e-01 1.550751924514770508e-02
1.338856071233749390e-01 -3.002777695655822754e-01 -1.008117012679576874e-02
5.904138833284378052e-02 -5.248789191246032715e-01 -1.260296534746885300e-02
6.590219587087631226e-02 -4.325470924377441406e-01 -1.375381182879209518e-02
-2.760678157210350037e-02 5.760093331336975098e-01 1.045799814164638519e-02
9.622148424386978149e-02 -2.514148652553558350e-01 -1.343845389783382416e-02
-1.526831388473510742e-01 2.229619026184082031e-01 7.750497199594974518e-03
5.616103857755661011e-02 -5.915496349334716797e-01 1.187631208449602127e-02
6.648238748311996460e-02 3.077516257762908936e-01 -9.246928617358207703e-03
-8.867388218641281128e-02 -2.309125661849975586e-01 -9.330019354820251465e-03
-2.927834168076515198e-02 3.360340297222137451e-01 -1.472118776291608810e-02
2.608581818640232086e-02 3.646112382411956787e-01 -1.206122618168592453e-02
-5.398507788777351379e-02 4.317275807261466980e-02 1.580513641238212585e-02
-4.005159437656402588e-02 5.704714059829711914e-01 1.115983817726373672e-02
2.591015957295894623e-02 5.274509191513061523e-01 -6.881366018205881119e-03
-4.007599875330924988e-02 3.991193771362304688e-01 1.431702356785535812e-02
-9.957572817802429199e-02 1.484115980565547943e-02 -1.235918793827295303e-02
1.397752463817596436e-01 -1.361637115478515625e-01 7.821483537554740906e-03
-9.560036659240722656e-02 5.543441176414489746e-01 -1.142993941903114319e-02
-1.162334829568862915e-01 3.403342962265014648e-01 1.257109735161066055e-02
5.771340336650609970e-03 6.503927111625671387e-01 -1.154963159933686256e-03
8.622186630964279175e-02 -7.517319917678833008e-01 -6.841707043349742889e-03
7.630260288715362549e-02 1.717139780521392822e-01 1.153074856847524643e-02
-1.119178161025047302e-01 6.202485412359237671e-02 1.201268937438726425e-02
-1.402636058628559113e-02 2.710658907890319824e-01 -1.514988765120506287e-02
4.078198224306106567e-02 -3.572799563407897949e-01 -1.471118815243244171e-02
1.687804050743579865e-02 1.006447821855545044e-01 1.604778505861759186e-02
1.539484411478042603e-01 -5.379678606986999512e-01 7.051341235637664795e-03
-1.448547393083572388e-01 6.689127087593078613e-01 -5.786882713437080383e-03
-6.104011833667755127e-02 3.283903002738952637e-01 1.496786251664161682e-02
-1.022326275706291199e-01 6.630575656890869141e-01 9.157304652035236359e-03
7.919705659151077271e-02 -2.360142469406127930e-01 -1.439465023577213287e-02
4.497717600315809250e-03 -1.941981315612792969e-01 -1.576237380504608154e-02
1.018091738224029541e-01 -7.174725830554962158e-02 1.240594591945409775e-02
1.402712911367416382e-01 -4.899019747972488403e-02 5.461585242301225662e-03
-1.100118458271026611e-01 -6.011295132339000702e-03 1.142134144902229309e-02
2.413970418274402618e-02 -4.760983586311340332e-01 1.346414163708686829e-02
1.217224448919296265e-02 1.869278550148010254e-01 1.553289685398340225e-02
1.516793668270111084e-01 -2.639185786247253418e-01 -6.885747425258159637e-03
-3.508425131440162659e-02 5.151747465133666992e-01 1.227909885346889496e-02
8.003584295511245728e-02 -7.260471582412719727e-01 -7.830211892724037170e-03
8.919491618871688843e-02 -4.760028123855590820e-01 -1.270367577672004700e-02
-1.442705094814300537e-01 -4.491534456610679626e-02 -1.223493600264191628e-04
2.153178490698337555e-02 2.768713235855102539e-01 1.408920623362064362e-02
-3.888485953211784363e-03 -6.580222845077514648e-01 -4.856133367866277695e-03
9.617459774017333984e-02 -8.109514117240905762e-01 4.023297224193811417e-03
5.851157009601593018e-02 4.510742127895355225e-01 -4.060653038322925568e-03
-1.095559075474739075e-01 -1.965407729148864746e-01 -6.514358334243297577e-03
1.203012838959693909e-01 -5.939600467681884766e-01 1.012001559138298035e-02
6.784082949161529541e-02 1.752767860889434814e-01 1.234026998281478882e-02
1.569554209709167480e-01 -6.556493639945983887e-01 4.205431789159774780e-03
4.059103876352310181e-02 6.684622168540954590e-02 -1.517146639525890350e-02
-7.711507380008697510e-02 6.419066190719604492e-01 1.003177650272846222e-02
-1.156080067157745361e-01 3.755187690258026123e-01 1.248367130756378174e-02
2.738874405622482300e-02 5.796648859977722168e-01 -2.386516425758600235e-03
-1.385917067527770996e-01 1.139682903885841370e-01 8.982069790363311768e-03
-7.438734173774719238e-02 -6.249450892210006714e-02 1.409743074327707291e-02
-1.316984742879867554e-01 1.514496505260467529e-01 1.048854086548089981e-02
-1.196556538343429565e-01 -7.031784206628799438e-02 -8.330938406288623810e-03
3.243909031152725220e-02 -4.145304560661315918e-01 -1.403804495930671692e-02
-8.487629145383834839e-02 5.191398859024047852e-01 1.245171017944812775e-02
-5.528476089239120483e-02 -1.648217737674713135e-01 -1.382847409695386887e-02
-6.876529753208160400e-02 -3.362120687961578369e-01 9.744073264300823212e-03
6.805945932865142822e-02 3.818677365779876709e-01 -5.988009274005889893e-03
-6.002717092633247375e-02 9.011606127023696899e-02 -1.532194949686527252e-02
2.776032872498035431e-02 -3.219992816448211670e-01 1.545680407434701920e-02
-1.586500741541385651e-02 3.207388818264007568e-01 -1.467090751975774765e-02
-1.242231577634811401e-01 -1.838073432445526123e-01 1.802395563572645187e-03
-1.041076108813285828e-01 1.550183594226837158e-01 1.337526831775903702e-02
-7.153458893299102783e-02 -3.079634308815002441e-01 1.017853524535894394e-02
-1.934055984020233154e-02 1.121842861175537109e-01 -1.612069271504878998e-02
-5.060588568449020386e-02 7.278905510902404785e-01 -5.629588384181261063e-03
2.935853414237499237e-02 3.447071611881256104e-01 1.240257918834686279e-02
-7.346372306346893311e-02 3.580897748470306396e-01 -1.423173211514949799e-02
-1.738914102315902710e-01 4.182892441749572754e-01 -3.019343828782439232e-03
1.175483167171478271e-01 1.394860446453094482e-01 4.776163958013057709e-03
6.700658053159713745e-02 -2.240381836891174316e-01 -1.492059789597988129e-02
-2.895916253328323364e-02 6.100019216537475586e-01 9.463250637054443359e-03
8.540390431880950928e-02 9.769254922866821289e-02 -1.164815481752157211e-02
-3.519726544618606567e-02 2.626143395900726318e-01 -1.538797374814748764e-02
-6.547826528549194336e-02 -3.052116334438323975e-01 -1.047008205205202103e-02
-1.066071689128875732e-01 -9.870988875627517700e-02 1.030571293085813522e-02
-5.096770357340574265e-03 -5.229972302913665771e-02 -1.624225452542304993e-02
-4.696957394480705261e-02 3.787845373153686523e-01 1.459994353353977203e-02
-1.558579970151185989e-03 6.635668873786926270e-01 2.582346322014927864e-03
-9.021233767271041870e-02 5.650222897529602051e-01 1.158732455223798752e-02
6.728430837392807007e-02 3.727215230464935303e-01 -6.636133417487144470e-03
5.710357427597045898e-02 -6.469045281410217285e-01 1.057036872953176498e-02
1.569200009107589722e-01 -1.913853585720062256e-01 -3.907654434442520142e-03
1.402597427368164062e-01 -6.719349026679992676e-01 6.749908439815044403e-03
-4.087079688906669617e-02 -1.358286570757627487e-02 1.606870815157890320e-02
7.443843036890029907e-02 3.750490844249725342e-01 4.734793212264776230e-03
1.289656460285186768e-01 2.201277390122413635e-02 -6.132621318101882935e-03
-8.448741585016250610e-02 5.801422595977783203e-01 -1.122643426060676575e-02
7.693807780742645264e-02 -8.272063136100769043e-01 5.902382545173168182e-04
1.020708158612251282e-01 -7.290975451469421387e-01 -7.408310659229755402e-03
-2.915373817086219788e-02 -4.542601108551025391e-01 1.092396210879087448e-02
8.808835595846176147e-02 -8.114088773727416992e-01 -3.402210073545575142e-03
4.071770235896110535e-04 -1.097076293081045151e-02 1.664101332426071167e-02
8.809299767017364502e-02 -2.429692074656486511e-02 1.321509573608636856e-02
-1.437120288610458374e-01 2.948572635650634766e-01 -9.411615319550037384e-03
4.869671538472175598e-02 3.584985136985778809e-01 -1.007224060595035553e-02
1.138579100370407104e-02 -5.731099843978881836e-01 1.075473241508007050e-02
4.802657756954431534e-03 3.013109862804412842e-01 -1.429658848792314529e-02
-5.876377597451210022e-02 6.989301443099975586e-01 -7.606721483170986176e-03
3.018414042890071869e-02 -6.458454728126525879e-01 9.614358656108379364e-03
-5.830593779683113098e-02 1.401332616806030273e-01 -1.542968675494194031e-02
7.724124938249588013e-02 3.054429888725280762e-01 -7.533214055001735687e-03
5.459215119481086731e-02 3.048091530799865723e-01 1.098392438143491745e-02
9.802889823913574219e-02 -2.393245697021484375e-01 -1.330827362835407257e-02
9.883058071136474609e-02 3.647254779934883118e-02 -1.109680626541376114e-02
4.273895174264907837e-02 2.003589868545532227e-01 1.393884327262639999e-02
-6.742845475673675537e-02 -1.023120805621147156e-01 1.418170519173145294e-02
8.345239609479904175e-02 -3.347111046314239502e-01 1.435816474258899689e-02
-1.208529397845268250e-01 3.951185047626495361e-01 1.200847700238227844e-02
-5.055203288793563843e-02 1.963819265365600586e-01 1.585551351308822632e-02
1.185287758708000183e-01 -1.817403733730316162e-01 -1.127818692475557327e-02
-1.280379444360733032e-01 6.497047543525695801e-01 8.192957378923892975e-03
4.708413779735565186e-02 -4.439970850944519043e-01 1.424319576472043991e-02
-8.089527487754821777e-02 1.688587069511413574e-01 -1.452659908682107925e-02
-1.525888442993164062e-01 2.646112740039825439e-01 -7.797896396368741989e-03
2.489638142287731171e-02 3.312121629714965820e-01 1.298690494149923325e-02
3.424982354044914246e-02 4.231466352939605713e-01 9.961029514670372009e-03
-1.517525911331176758e-01 6.590587496757507324e-01 -5.028388462960720062e-03
-1.223078444600105286e-01 -1.386778950691223145e-01 6.017676554620265961e-03
-1.162293255329132080e-01 -2.115506492555141449e-02 -9.909880347549915314e-03
-3.017570823431015015e-02 3.512524366378784180e-01 1.479178108274936676e-02
-8.002264657989144325e-04 3.482486903667449951e-01 1.405946258455514908e-02
-1.114542558789253235e-01 2.533051669597625732e-01 1.303026545792818069e-02
-1.415697336196899414e-01 1.938010193407535553e-02 -5.838892888277769089e-03
1.135253906250000000e-01 -6.289755702018737793e-01 9.954418055713176727e-03
2.901741117238998413e-02 -1.912058591842651367e-01 -1.583340950310230255e-02
1.261554807424545288e-01 -7.908356189727783203e-01 3.389472840353846550e-03
7.244854420423507690e-02 3.478206396102905273e-01 6.832401268184185028e-03
1.718087308108806610e-02 -6.501013040542602539e-01 -7.947708480060100555e-03
-1.472717374563217163e-01 3.038247823715209961e-01 9.280576370656490326e-03
-8.440225571393966675e-02 3.037928938865661621e-01 -1.417813822627067566e-02
-1.313378810882568359e-01 3.079010546207427979e-01 1.127974782139062881e-02
3.722794353961944580e-02 4.995816648006439209e-01 6.403936538845300674e-03
-6.817390769720077515e-02 -2.338969409465789795e-01 1.223946642130613327e-02
-1.740764677524566650e-01 3.183546662330627441e-01 -1.306477002799510956e-03
6.573089957237243652e-02 1.607010364532470703e-01 -1.256267447024583817e-02
4.892420023679733276e-02 4.149340987205505371e-01 8.300756104290485382e-03
8.062916249036788940e-02 -7.138303667306900024e-02 1.417984534054994583e-02
1.083088666200637817e-02 5.405427813529968262e-01 -8.395517244935035706e-03
-2.970832958817481995e-02 -4.752790033817291260e-01 1.025722362101078033e-02
1.265325099229812622e-01 -5.655525326728820801e-01 -9.582942351698875427e-03
1.154325306415557861e-01 -4.665913283824920654e-01 1.186179369688034058e-02
7.160133868455886841e-02 -2.833104729652404785e-01 1.500614453107118607e-02
-6.322623789310455322e-02 1.905162930488586426e-01 1.555950473994016647e-02
-8.026475459337234497e-02 6.039482951164245605e-01 1.095413323491811752e-02
1.215857490897178650e-01 -3.014656603336334229e-01 1.180539559572935104e-02
6.606896966695785522e-02 1.171618327498435974e-01 1.339341513812541962e-02
6.378999352455139160e-02 -4.994704425334930420e-01 -1.296661607921123505e-02
-4.921150580048561096e-02 7.121029496192932129e-01 6.524243857711553574e-03
-8.865121752023696899e-03 -4.037353694438934326e-01 1.345505379140377045e-02
-6.693891435861587524e-02 -4.424419701099395752e-01 5.553818773478269577e-03
7.317385077476501465e-02 -3.454821929335594177e-02 -1.413623709231615067e-02
5.239563062787055969e-03 1.975054442882537842e-01 -1.538316626101732254e-02
-1.264955252408981323e-01 4.725063145160675049e-01 1.104135345667600632e-02
-1.117877736687660217e-01 3.547108173370361328e-01 -1.253333967179059982e-02
-1.316658109426498413e-01 1.508051343262195587e-02 8.489901199936866760e-03
5.202214792370796204e-02 -4.895129203796386719e-01 1.364104263484477997e-02
-1.920127123594284058e-02 4.235554933547973633e-01 -1.332968007773160934e-02
7.060298323631286621e-02 -1.439098715782165527e-01 -1.475017052143812180e-02
4.862217232584953308e-02 -3.538164496421813965e-01 -1.470188796520233154e-02
-1.587843708693981171e-02 3.760713934898376465e-01 -1.396265812218189240e-02
1.560580879449844360e-01 -1.714381873607635498e-01 -3.590656211599707603e-03
1.458924114704132080e-01 -3.439182937145233154e-01 8.880628272891044617e-03
-1.708412170410156250e-02 5.917716622352600098e-01 -9.150861762464046478e-03
-6.655062735080718994e-02 4.420294463634490967e-01 1.377697288990020752e-02
-2.364691346883773804e-02 -5.811069011688232422e-01 -6.156318821012973785e-03
-1.194954663515090942e-01 2.798229157924652100e-01 1.238909177482128143e-02
-2.913688682019710541e-02 7.668422162532806396e-02 -1.609769836068153381e-02
-2.023462578654289246e-02 -2.492165863513946533e-01 1.512430049479007721e-02
9.338618814945220947e-02 1.946360468864440918e-01 -8.385392837226390839e-03
5.024807900190353394e-02 5.035856962203979492e-01 -1.473109121434390545e-03
3.061587456613779068e-03 -2.393019199371337891e-01 1.585840992629528046e-02
1.182814687490463257e-01 -3.521352410316467285e-01 1.212119404226541519e-02
-6.304644048213958740e-02 8.452188968658447266e-02 1.555579341948032379e-02
4.252080339938402176e-03 -4.318261444568634033e-01 -1.304063480347394943e-02
-6.115481629967689514e-02 -4.873252809047698975e-01 3.877839306369423866e-03
1.591477990150451660e-01 -6.008812189102172852e-01 5.091876722872257233e-03
1.021776795387268066e-01 -5.583571791648864746e-01 1.166413724422454834e-02
-2.869719266891479492e-02 -1.524361371994018555e-01 -1.526840031147003174e-02
-1.174147650599479675e-01 -1.943967938423156738e-01 4.800059832632541656e-03
-8.972547948360443115e-02 -2.545693516731262207e-01 -8.479183539748191833e-03
7.985883206129074097e-02 -4.809894263744354248e-01 1.340355537831783295e-02
-1.061885133385658264e-01 4.914638698101043701e-01 1.210375782102346420e-02
5.294235050678253174e-02 4.096284806728363037e-01 7.859521545469760895e-03
-1.036255061626434326e-02 5.862012505531311035e-01 -8.798622526228427887e-03
1.303591132164001465e-01 3.136043623089790344e-02 5.585990380495786667e-03
1.579715460538864136e-01 -5.110147595405578613e-01 6.530833896249532700e-03
-1.062554121017456055e-02 6.240084767341613770e-01 7.315453607589006424e-03
-8.767298609018325806e-02 2.120142281055450439e-01 1.453955564647912979e-02
1.365037560462951660e-01 3.467809408903121948e-02 2.657952951267361641e-03
-4.194278270006179810e-02 -4.115146696567535400e-01 -1.028211135417222977e-02
6.461037695407867432e-02 -5.455262660980224609e-01 -1.225014310330152512e-02
-4.028887301683425903e-02 5.063087940216064453e-01 1.260016951709985733e-02
-1.016195788979530334e-01 6.917868256568908691e-01 -8.190406486392021179e-03
-1.674235016107559204e-01 4.618757367134094238e-01 -5.161896347999572754e-03
-8.770190924406051636e-02 6.533084064722061157e-02 1.414768490940332413e-02
3.624266386032104492e-02 4.144481122493743896e-01 -9.864892810583114624e-03
3.128129243850708008e-02 -7.549832463264465332e-01 -3.171013202518224716e-03
-6.162734702229499817e-02 6.231958270072937012e-01 -1.022402103990316391e-02
2.058432251214981079e-02 3.675641715526580811e-01 -1.239437330514192581e-02
-1.650294661521911621e-02 6.359174847602844238e-01 7.392523344606161118e-03
-9.041892737150192261e-02 1.075875163078308105e-01 -1.379255112260580063e-02
-4.032196849584579468e-02 5.610349178314208984e-01 -1.125513203442096710e-02
1.393068283796310425e-01 -3.033489584922790527e-01 9.708059951663017273e-03
3.472473472356796265e-02 -6.812651753425598145e-01 -7.994739338755607605e-03
-1.425970941781997681e-01 2.759478986263275146e-01 -9.488582611083984375e-03
2.665328793227672577e-03 3.307343423366546631e-01 -1.397679094225168228e-02
-1.438194066286087036e-01 5.492384433746337891e-01 8.585257455706596375e-03
-1.318478584289550781e-01 6.540030837059020996e-01 7.783089298754930496e-03
-2.097771875560283661e-02 -9.478183463215827942e-03 1.652020402252674103e-02
2.903071418404579163e-02 5.243698954582214355e-01 6.599772721529006958e-03
-1.081482172012329102e-01 -2.358274161815643311e-02 1.139794010668992996e-02
4.006022959947586060e-02 1.556107997894287109e-01 1.465828996151685715e-02
-1.632094979286193848e-01 1.417895257472991943e-01 -1.205330714583396912e-03
4.744988307356834412e-02 2.558245062828063965e-01 -1.251162774860858917e-02
-2.657976746559143066e-02 2.385804057121276855e-01 -1.553987897932529449e-02
1.651605218648910522e-01 -6.299206018447875977e-01 2.073767594993114471e-03
-1.063469201326370239e-01 2.506388723850250244e-01 -1.306644361466169357e-02
5.381426960229873657e-02 -3.213440477848052979e-01 1.530622318387031555e-02
-5.384341627359390259e-02 -8.173144608736038208e-02 -1.474504452198743820e-02
-8.075570315122604370e-02 -1.277827769517898560e-01 -1.232987456023693085e-02
4.665052145719528198e-02 -5.715997219085693359e-01 -1.162616442888975143e-02
-5.123026669025421143e-02 -1.236410290002822876e-01 -1.451385486871004105e-02
3.082484193146228790e-02 1.240972653031349182e-01 1.540893968194723129e-02
7.142204791307449341e-02 -2.726820111274719238e-01 -1.465124357491731644e-02
8.316969871520996094e-02 -7.414788603782653809e-01 -7.257737684994935989e-03
-5.849587917327880859e-02 2.039716541767120361e-01 -1.534551102668046951e-02
-7.773825526237487793e-02 2.591454684734344482e-01 1.489764824509620667e-02
-1.144550815224647522e-01 7.795454859733581543e-01 3.850052133202552795e-03
-7.859649509191513062e-02 5.082921981811523438e-01 -1.252009719610214233e-02
5.730403587222099304e-02 4.471904337406158447e-01 4.868265707045793533e-03
-9.305480867624282837e-02 -6.253175437450408936e-02 -1.206587161868810654e-02
6.131195276975631714e-02 4.043870568275451660e-01 -6.357027683407068253e-03
3.776170313358306885e-02 -7.301941514015197754e-04 -1.564448699355125427e-02
1.439857184886932373e-01 -5.786951780319213867e-01 8.062602020800113678e-03
-4.066751897335052490e-02 -4.491102695465087891e-01 9.862079285085201263e-03
4.868007451295852661e-02 3.055760562419891357e-01 -1.140575017780065536e-02
-7.542524486780166626e-02 -9.158801287412643433e-02 -1.326562650501728058e-02
-8.551637083292007446e-02 -3.898681402206420898e-01 -2.256897743791341782e-03
-8.215975761413574219e-02 -2.215031981468200684e-01 1.095875911414623260e-02
-4.536756873130798340e-02 4.499895870685577393e-01 -1.345905754715204239e-02
-1.121983304619789124e-02 -2.058925628662109375e-01 1.581499539315700531e-02
-1.300770491361618042e-01 4.141995906829833984e-01 -1.086030341684818268e-02
-3.476215153932571411e-02 4.943470060825347900e-01 1.269320305436849594e-02
1.098767481744289398e-02 -1.088244244456291199e-01 1.654254645109176636e-02
3.597721084952354431e-02 -3.090263903141021729e-01 -1.512912474572658539e-02
-4.980122298002243042e-02 -2.848344445228576660e-01 1.292611099779605865e-02
8.019535243511199951e-02 1.795225739479064941e-01 1.091176364570856094e-02
-1.766313612461090088e-02 -1.598757505416870117e-01 1.598325185477733612e-02
-6.466959416866302490e-02 -2.377771437168121338e-01 -1.199855376034975052e-02
-1.205575093626976013e-01 -2.026797533035278320e-01 -1.925631426274776459e-03
7.426555454730987549e-02 -5.892053246498107910e-01 1.192548684775829315e-02
5.384628847241401672e-02 -2.282450795173645020e-01 1.570256054401397705e-02
9.851369261741638184e-02 1.696685552597045898e-01 8.396835066378116608e-03
-1.343726217746734619e-01 5.496473908424377441e-01 -9.289469569921493530e-03
-8.114290237426757812e-02 -1.043435409665107727e-01 1.308760046958923340e-02
-8.873056620359420776e-02 -2.255644202232360840e-01 9.980969130992889404e-03
1.559618674218654633e-02 1.031763777136802673e-01 -1.577872969210147858e-02
3.575868159532546997e-02 -2.656613662838935852e-02 1.611492596566677094e-02
1.157285198569297791e-01 -3.317024111747741699e-01 1.235652901232242584e-02
-4.834184050559997559e-02 7.559625506401062012e-01 -3.018439747393131256e-03
8.773890882730484009e-02 2.962384223937988281e-01 -5.510340910404920578e-03
-1.537705063819885254e-01 4.078636169433593750e-01 8.365104906260967255e-03
-6.586094945669174194e-02 6.855136752128601074e-01 -8.381199091672897339e-03
-6.315479427576065063e-02 2.278388142585754395e-01 -1.515740621834993362e-02
1.105443015694618225e-01 -7.402803301811218262e-01 -6.671488750725984573e-03
7.236609235405921936e-06 4.139777421951293945e-01 1.288032438606023788e-02
-4.254679009318351746e-02 -3.341292738914489746e-01 -1.205779239535331726e-02
-6.765417009592056274e-02 7.858410477638244629e-01 2.275170758366584778e-03
-1.169892400503158569e-02 -2.428570687770843506e-01 -1.502755284309387207e-02
5.468755215406417847e-02 -4.396472275257110596e-01 -1.379881706088781357e-02
-1.637413203716278076e-01 2.786861062049865723e-01 5.750673357397317886e-03
6.901964079588651657e-03 -4.010386765003204346e-01 -1.364956609904766083e-02
-1.577656865119934082e-01 2.180436253547668457e-01 6.516639143228530884e-03
8.493867516517639160e-02 -3.050194978713989258e-01 1.438748929649591446e-02
-7.135194540023803711e-02 3.054750263690948486e-01 1.489852368831634521e-02
-1.244305744767189026e-01 3.335134685039520264e-02 -9.612062945961952209e-03
-2.007104828953742981e-02 -4.621894285082817078e-02 1.645912230014801025e-02
5.459328368306159973e-02 3.551016151905059814e-01 9.583076462149620056e-03
2.997528202831745148e-02 -1.984223127365112305e-01 1.619625091552734375e-02
-5.673439055681228638e-02 -3.927356600761413574e-01 9.640028700232505798e-03
3.207554575055837631e-03 -2.643927931785583496e-01 1.565506681799888611e-02
7.772637903690338135e-02 -2.205410599708557129e-01 -1.447280589491128922e-02
3.358745016157627106e-04 -1.340342164039611816e-01 -1.603238470852375031e-02
1.479823589324951172e-01 -1.784861385822296143e-01 6.736561190336942673e-03
-2.382751787081360817e-03 6.277192234992980957e-01 5.989879835397005081e-03
1.113508716225624084e-01 -4.986101090908050537e-01 1.186468545347452164e-02
1.162962801754474640e-02 -1.525382101535797119e-01 -1.602537371218204498e-02
-5.706602707505226135e-02 -3.269513547420501709e-01 1.140167843550443649e-02
-8.043103665113449097e-02 -1.845411658287048340e-01 1.190501265227794647e-02
-3.523545712232589722e-02 4.884617626667022705e-01 -1.264502108097076416e-02
-3.628187999129295349e-02 6.132956147193908691e-01 -9.649600833654403687e-03
4.381075501441955566e-02 -3.045339286327362061e-01 1.554604899138212204e-02
6.441804766654968262e-02 2.130241096019744873e-01 -1.177909504622220993e-02
6.472819298505783081e-02 3.734356909990310669e-02 1.438971143215894699e-02
1.269941776990890503e-01 -4.315075874328613281e-01 1.112498529255390167e-02
1.414309442043304443e-01 -2.447043955326080322e-01 8.976121433079242706e-03
-1.594429463148117065e-01 1.397579312324523926e-01 4.079709760844707489e-03
2.754871267825365067e-03 3.592232763767242432e-01 1.373310014605522156e-02
-5.650171637535095215e-02 1.722807586193084717e-01 -1.545895822346210480e-02
6.879258155822753906e-02 1.371263563632965088e-01 -1.265328843146562576e-02
-3.117392957210540771e-02 3.901402652263641357e-01 -1.410693861544132233e-02
-1.871382072567939758e-02 1.718910336494445801e-01 1.618690602481365204e-02
1.250521391630172729e-01 -4.898681640625000000e-01 -1.051122415810823441e-02
-9.435066021978855133e-03 -5.623862743377685547e-01 -8.848574012517929077e-03
-7.157750427722930908e-02 3.325827792286872864e-02 1.497021876275539398e-02
1.906302385032176971e-02 6.892149150371551514e-02 1.616921462118625641e-02
1.192994415760040283e-02 -3.022798597812652588e-01 -1.500994525849819183e-02
2.982453070580959320e-02 5.016558170318603516e-01 -7.490332238376140594e-03
-1.616931259632110596e-01 3.746009171009063721e-01 -6.586923263967037201e-03
3.330855444073677063e-02 8.688990771770477295e-02 -1.532726641744375229e-02
9.342336654663085938e-02 -6.527984738349914551e-01 1.029383018612861633e-02
-6.208946183323860168e-02 -2.118175104260444641e-02 1.516892947256565094e-02
-1.952710561454296112e-02 -3.013443946838378906e-01 -1.404087152332067490e-02
-7.431451976299285889e-02 -2.265752851963043213e-01 -1.124990358948707581e-02
-1.151942163705825806e-01 -2.360202968120574951e-01 -1.824100967496633530e-03
-1.056850478053092957e-01 5.507600903511047363e-01 1.133148930966854095e-02
-4.787080734968185425e-02 1.665144860744476318e-01 1.599167101085186005e-02
1.210317239165306091e-01 -5.226532220840454102e-01 -1.052000187337398529e-02
-4.261802136898040771e-02 1.104971244931221008e-01 1.618688553571701050e-02
8.697161078453063965e-02 -6.231381893157958984e-01 -1.055519189685583115e-02
-3.654788061976432800e-02 3.318820595741271973e-01 -1.482106372714042664e-02
3.618792444467544556e-02 1.087834686040878296e-01 -1.504503656178712845e-02
3.135156352072954178e-03 -6.479634642601013184e-01 7.173369172960519791e-03
1.165291741490364075e-01 1.187960132956504822e-01 -5.923101678490638733e-03
-9.584221243858337402e-02 6.984744668006896973e-01 8.243388496339321136e-03
-1.716020889580249786e-02 -5.277944803237915039e-01 9.856064803898334503e-03
-1.435302793979644775e-01 5.178151726722717285e-01 9.001685306429862976e-03
-1.221430301666259766e-02 2.738687694072723389e-01 1.533203758299350739e-02
8.634757250547409058e-02 -7.840561866760253906e-01 -5.284111946821212769e-03
-5.845551565289497375e-02 5.101116299629211426e-01 1.279191859066486359e-02
-1.134573072195053101e-01 1.771262884140014648e-01 1.267893332988023758e-02
3.006854094564914703e-02 1.044214963912963867e-01 1.559850759804248810e-02
9.272225946187973022e-02 -1.547946631908416748e-01 -1.346031483262777328e-02
-8.620748668909072876e-02 -3.124074935913085938e-01 7.625810336321592331e-03
4.315284639596939087e-02 -5.504148006439208984e-01 -1.199822220951318741e-02
-1.704527065157890320e-02 -6.225994825363159180e-01 5.391550716012716293e-03
1.277172714471817017e-01 -2.839342355728149414e-01 1.110948156565427780e-02
-2.326582185924053192e-02 -2.541504204273223877e-01 -1.447706203907728195e-02
-6.750716269016265869e-02 -1.391257941722869873e-01 -1.329171378165483475e-02
-8.862255513668060303e-02 3.717508614063262939e-01 -1.365684531629085541e-02
7.714747637510299683e-02 1.243462786078453064e-02 -1.347755733877420425e-02
-5.768014490604400635e-02 6.293319910764694214e-02 1.571797765791416168e-02
-6.815377622842788696e-02 -3.437134325504302979e-01 9.601779282093048096e-03
-2.847781032323837280e-02 -3.707742393016815186e-01 -1.238288450986146927e-02
-8.731731027364730835e-02 3.470693528652191162e-01 -1.385641284286975861e-02
-4.093474149703979492e-02 -1.040582656860351562e-01 1.559355854988098145e-02
-2.262197062373161316e-02 1.268694102764129639e-01 -1.607030443847179413e-02
-1.027175486087799072e-01 -2.965352237224578857e-01 3.542555496096611023e-03
-1.529929786920547485e-01 1.776930391788482666e-01 7.049136795103549957e-03
-9.728631004691123962e-03 8.550507575273513794e-02 -1.618928648531436920e-02
-1.458581089973449707e-01 7.089005708694458008e-01 4.311712924391031265e-03
-3.439161926507949829e-02 -4.661088585853576660e-01 1.004028413444757462e-02
2.255271002650260925e-02 -1.859298050403594971e-01 1.628782227635383606e-02
1.428103446960449219e-02 -1.032524332404136658e-01 -1.616826839745044708e-02
1.014801785349845886e-01 -4.516753256320953369e-01 1.282896380871534348e-02
-2.311777137219905853e-02 -5.214466452598571777e-01 -8.865023963153362274e-03
-3.217121958732604980e-02 6.276293396949768066e-01 9.046422317624092102e-03
1.225440651178359985e-01 -3.349076509475708008e-01 -1.137332804501056671e-02
5.345915257930755615e-02 -7.920889556407928467e-02 -1.534476596862077713e-02
-1.422364711761474609e-01 2.240543067455291748e-01 9.596713818609714508e-03
-4.535340704023838043e-03 -7.322449237108230591e-02 1.657726801931858063e-02
6.343824416399002075e-02 -4.670431837439537048e-02 1.507597789168357849e-02
1.400616765022277832e-01 -5.032507181167602539e-01 -8.914295583963394165e-03
4.008517041802406311e-02 -2.932158112525939941e-01 1.565103977918624878e-02
-3.975445032119750977e-02 5.389049649238586426e-01 1.190350763499736786e-02
5.389320105314254761e-02 1.087301895022392273e-01 1.436495222151279449e-02
-1.207401230931282043e-01 3.971332609653472900e-01 -1.171651668846607208e-02
6.242003291845321655e-02 -5.332527160644531250e-01 1.296761445701122284e-02
-1.318009793758392334e-01 -8.817159384489059448e-02 5.244476720690727234e-03
2.534252125769853592e-03 -5.177923440933227539e-01 1.168726570904254913e-02
7.532345503568649292e-02 4.018637239933013916e-01 -6.494463887065649033e-04
1.272286176681518555e-01 -5.666474699974060059e-01 9.971884079277515411e-03
-3.937312215566635132e-02 -3.224203288555145264e-01 -1.253003533929586411e-02
2.440065704286098480e-02 -4.831891059875488281e-01 1.334816683083772659e-02
8.662368357181549072e-02 -8.111889362335205078e-01 3.998105414211750031e-03
-1.353215575218200684e-01 1.215826198458671570e-01 -9.213605895638465881e-03
-1.014949381351470947e-02 -1.121804490685462952e-01 1.639349572360515594e-02
4.001443460583686829e-02 2.582360208034515381e-01 1.323575805872678757e-02
1.730993762612342834e-02 5.915546417236328125e-01 -4.545718431472778320e-03
1.180072203278541565e-01 -2.456709742546081543e-01 -1.166596915572881699e-02
3.973629325628280640e-02 -5.798667073249816895e-01 -1.128317322582006454e-02
8.569908887147903442e-02 7.868078351020812988e-02 -1.191444601863622665e-02
1.277642995119094849e-01 1.119659096002578735e-01 4.873044963460415602e-05
-2.617556834593415260e-03 -6.840767860412597656e-01 -2.733158413320779800e-03
7.759745419025421143e-02 -7.472208142280578613e-01 -6.988531444221735001e-03
-5.357061326503753662e-02 -3.550403416156768799e-01 1.108773425221443176e-02
1.273432224988937378e-01 -4.241816997528076172e-01 1.112247258424758911e-02
-9.395700693130493164e-02 2.731367945671081543e-01 -1.381840649992227554e-02
1.679388135671615601e-01 -4.394059181213378906e-01 4.065900109708309174e-03
3.293668478727340698e-02 3.207589685916900635e-01 -1.243428885936737061e-02
-9.814719855785369873e-02 6.469979286193847656e-01 9.679625742137432098e-03
5.129216238856315613e-02 -6.416010260581970215e-01 -1.002737507224082947e-02
-8.607320487499237061e-02 5.063460469245910645e-01 -1.239903829991817474e-02
-1.130115538835525513e-01 -2.108018100261688232e-01 5.420939065515995026e-03
8.219144493341445923e-02 -2.132413387298583984e-01 -1.424792315810918808e-02
-4.505912587046623230e-02 -2.555112838745117188e-01 -1.326128840446472168e-02
-1.846383139491081238e-02 3.951268792152404785e-01 1.395454537123441696e-02
7.269748300313949585e-02 -2.239101231098175049e-01 -1.469624880701303482e-02
1.638936251401901245e-01 -2.539784312248229980e-01 2.808160381391644478e-03
-9.081457555294036865e-02 5.454388856887817383e-01 -1.170501019805669785e-02
8.484925329685211182e-02 -7.792224287986755371e-01 6.128818262368440628e-03
1.444865912199020386e-01 -4.012683331966400146e-01 9.178513661026954651e-03
-1.466759666800498962e-02 6.977217197418212891e-01 -2.169517567381262779e-03
5.758907273411750793e-02 2.604345381259918213e-01 1.169132720679044724e-02
1.378065198659896851e-01 -6.008772850036621094e-01 8.471626788377761841e-03
-1.094077154994010925e-01 7.156155109405517578e-01 7.295478135347366333e-03
-1.641545742750167847e-01 2.729433774948120117e-01 5.550052039325237274e-03
1.435693949460983276e-01 -4.845029413700103760e-01 9.031417779624462128e-03
-1.144389733672142029e-01 4.188830554485321045e-01 -1.203675940632820129e-02
2.193220332264900208e-02 -9.798163175582885742e-02 1.648493856191635132e-02
1.090167462825775146e-01 -3.657037913799285889e-01 -1.242226921021938324e-02
1.127169355750083923e-01 -5.539063215255737305e-01 -1.070228964090347290e-02
-1.322655826807022095e-01 6.445050239562988281e-01 7.979309186339378357e-03
-2.648510411381721497e-02 4.920829460024833679e-02 -1.613648794591426849e-02
-9.546781331300735474e-02 5.557694435119628906e-01 1.161252148449420929e-02
9.549362212419509888e-02 -4.683896303176879883e-01 -1.253021229058504105e-02
-7.813411206007003784e-02 5.078951120376586914e-01 1.273865718394517899e-02
-1.576648056507110596e-01 4.939852654933929443e-01 7.278904784470796585e-03
-5.195252597332000732e-03 6.567037105560302734e-01 -4.316223319619894028e-03
9.243075549602508545e-02 -2.282072603702545166e-01 -1.366539020091295242e-02
1.105995625257492065e-01 -5.160448327660560608e-02 1.118670590221881866e-02
9.633722156286239624e-02 -5.570380091667175293e-01 1.192497275769710541e-02
-3.266976773738861084e-02 2.771330177783966064e-01 -1.528108492493629456e-02
-1.384961158037185669e-01 3.647716343402862549e-01 1.047478709369897842e-02
5.900816619396209717e-02 3.516999073326587677e-03 1.500302180647850037e-02
5.515993013978004456e-02 -5.564327836036682129e-01 1.256152056157588959e-02
5.092903971672058105e-02 4.392597079277038574e-01 -6.757476367056369781e-03
7.693299651145935059e-02 -1.098387390375137329e-01 1.462864410132169724e-02
-1.288606524467468262e-01 6.951743364334106445e-01 -6.678161211311817169e-03
6.183154135942459106e-02 -4.232441484928131104e-01 -1.391090173274278641e-02
8.213526010513305664e-02 -6.500600278377532959e-02 1.403034199029207230e-02
1.224655136466026306e-01 -7.489551305770874023e-01 6.108235567808151245e-03
-4.006465896964073181e-02 2.952075898647308350e-01 1.540197152644395828e-02
-6.432136893272399902e-02 4.215765297412872314e-01 -1.381468866020441055e-02
-1.203814521431922913e-02 5.228040218353271484e-01 -1.091329753398895264e-02
5.189386755228042603e-02 2.504464387893676758e-01 -1.223646663129329681e-02
-8.908194303512573242e-02 2.465902566909790039e-01 -1.411157287657260895e-02
1.505880383774638176e-03 -1.291685402393341064e-01 -1.606329903006553650e-02
1.022875308990478516e-02 -6.153063774108886719e-01 9.306854568421840668e-03
5.478910356760025024e-02 1.535234749317169189e-01 -1.352911349385976791e-02
1.231860890984535217e-01 6.778536736965179443e-02 -6.082834675908088684e-03
-9.343917667865753174e-02 1.868030726909637451e-01 1.420207414776086807e-02
9.646856039762496948e-02 -4.059280455112457275e-01 1.339871808886528015e-02
4.767362400889396667e-02 -3.600983917713165283e-01 -1.465566176921129227e-02
-4.349422827363014221e-02 6.917785406112670898e-01 -7.041615433990955353e-03
-7.514797151088714600e-02 -3.628152310848236084e-01 -7.205923087894916534e-03
5.684530362486839294e-02 -1.602082848548889160e-01 1.568447984755039215e-02
-7.683574408292770386e-02 -1.659706234931945801e-01 -1.210391800850629807e-02
-1.110721603035926819e-01 2.833692133426666260e-01 1.305455062538385391e-02
1.326297670602798462e-01 -1.603995561599731445e-01 9.496043436229228973e-03
1.198071092367172241e-01 1.330774426460266113e-01 -4.086539149284362793e-03
1.009596660733222961e-01 1.556979306042194366e-02 -1.116090361028909683e-02
-1.309722065925598145e-01 4.635897576808929443e-01 1.074752304702997208e-02
2.280214801430702209e-03 6.355112195014953613e-01 4.547257907688617706e-03
1.173352301120758057e-01 1.095420494675636292e-01 6.268184166401624680e-03
1.373498439788818359e-01 -6.612522900104522705e-02 6.824883632361888885e-03
8.893908932805061340e-03 -3.257428705692291260e-01 -1.470290869474411011e-02
-8.705118298530578613e-02 2.111124098300933838e-01 -1.423596683889627457e-02
8.788986504077911377e-02 -3.547495901584625244e-01 1.407651044428348541e-02
1.052011772990226746e-01 1.784546077251434326e-01 -6.468933541327714920e-03
2.421723678708076477e-03 6.502900123596191406e-01 2.976945834234356880e-03
-4.076400026679039001e-02 -4.260473549365997314e-01 1.055146474391222000e-02
1.446581184864044189e-01 -7.031554579734802246e-01 5.159405060112476349e-03
7.858191430568695068e-02 -7.090561985969543457e-01 -8.408700115978717804e-03
1.117331013083457947e-01 -7.113300561904907227e-01 -7.571410853415727615e-03
-1.115883588790893555e-01 3.962610960006713867e-01 -1.235540583729743958e-02
-2.629846893250942230e-02 2.549300193786621094e-01 -1.542345527559518814e-02
6.472520995885133743e-03 5.550500750541687012e-01 8.423564024269580841e-03
-4.202763363718986511e-02 3.421445190906524658e-02 -1.579512469470500946e-02
3.789707273244857788e-02 2.121254503726959229e-01 1.407961361110210419e-02
-6.294237915426492691e-03 -7.082723081111907959e-02 -1.619082130491733551e-02
-1.299117058515548706e-01 2.213611602783203125e-01 1.120503153651952744e-02
2.513162791728973389e-02 -7.292072772979736328e-01 -4.475138615816831589e-03
8.121201395988464355e-02 2.083179652690887451e-01 1.010208390653133392e-02
-8.254192024469375610e-02 7.664257884025573730e-01 5.136277526617050171e-03
-1.385669857263565063e-01 3.991415798664093018e-01 -1.007353793829679489e-02
-5.471396446228027344e-02 3.611126542091369629e-01 1.476072985678911209e-02
4.308019950985908508e-02 -6.495686173439025879e-01 1.010260265320539474e-02
6.320563703775405884e-02 -2.674928903579711914e-01 -1.493694167584180832e-02
-3.741549327969551086e-02 -3.894583284854888916e-01 -1.128085516393184662e-02
-1.502172946929931641e-01 7.341467738151550293e-01 -7.929386338219046593e-04
-9.286798536777496338e-02 6.310527324676513672e-01 1.017924398183822632e-02
-6.988237798213958740e-02 -1.790123879909515381e-01 -1.253106072545051575e-02
4.849395249038934708e-03 -1.162779405713081360e-01 1.651890948414802551e-02
3.903777897357940674e-02 -5.271375179290771484e-01 -1.237158942967653275e-02
2.904026210308074951e-02 -2.370427250862121582e-01 -1.562144793570041656e-02
2.549197338521480560e-02 -2.479060590267181396e-01 1.598534919321537018e-02
1.307798083871603012e-04 4.319557249546051025e-01 -1.234163157641887665e-02
-6.017465144395828247e-02 1.344122886657714844e-01 -1.536772120743989944e-02
-2.439938113093376160e-02 -6.132029742002487183e-02 1.632893830537796021e-02
1.463677138090133667e-01 -2.978468835353851318e-01 -8.229450322687625885e-03
-3.245386853814125061e-02 2.140791714191436768e-01 1.597058773040771484e-02
1.538455784320831299e-01 -4.215722382068634033e-01 7.657482288777828217e-03
2.951129712164402008e-02 2.389237880706787109e-01 -1.397957187145948410e-02
-7.164959609508514404e-02 7.304819822311401367e-01 6.794067565351724625e-03
-4.222493246197700500e-02 -2.861764132976531982e-01 -1.296454854309558868e-02
-5.994712933897972107e-02 -3.222614899277687073e-02 1.520924828946590424e-02
8.353717625141143799e-02 -4.103658497333526611e-01 -1.349615026265382767e-02
8.975455909967422485e-02 2.938221693038940430e-01 5.184954497963190079e-03
-7.693893276154994965e-04 -2.849728763103485107e-01 -1.491098385304212570e-02
3.498303145170211792e-02 1.068200394511222839e-01 1.537997927516698837e-02
1.406463682651519775e-01 3.559595905244350433e-03 2.455119974911212921e-03
1.277935057878494263e-01 -1.673593521118164062e-01 1.029930636286735535e-02
-9.809010475873947144e-02 2.003297805786132812e-01 -1.357576809823513031e-02
-8.764825761318206787e-02 6.658523678779602051e-01 9.343086741864681244e-03
5.953133571892976761e-03 -4.869641065597534180e-01 1.257856842130422592e-02
-1.081736758351325989e-01 8.939111232757568359e-02 1.263739634305238724e-02
2.000817470252513885e-02 4.123195409774780273e-01 -1.145571749657392502e-02
-2.801003307104110718e-02 -2.691031098365783691e-01 -1.406777463853359222e-02
1.145694255828857422e-01 -2.719522714614868164e-01 -1.205776818096637726e-02
1.916939951479434967e-02 3.761595189571380615e-01 1.248757261782884598e-02
-1.112093701958656311e-01 5.148547887802124023e-01 1.157392282038927078e-02
1.900410093367099762e-02 -3.034709692001342773e-01 1.555039547383785248e-02
-8.919004350900650024e-02 4.223906993865966797e-01 -1.324799098074436188e-02
2.426944300532341003e-02 -3.880604207515716553e-01 1.474161259829998016e-02
1.167122051119804382e-01 -4.190325736999511719e-01 1.205195020884275436e-02
-6.580251455307006836e-02 -2.902708947658538818e-01 -1.079265400767326355e-02
-1.328319758176803589e-01 1.116192340850830078e-01 9.890422224998474121e-03
4.382536187767982483e-02 2.129103839397430420e-01 -1.347067579627037048e-02
-1.044094711542129517e-01 1.213622763752937317e-01 1.318902801722288132e-02
-3.319308161735534668e-02 -5.308406800031661987e-02 1.614258624613285065e-02
-8.948620408773422241e-02 4.794181883335113525e-01 -1.265086606144905090e-02
2.537618204951286316e-02 1.741999685764312744e-01 1.516900863498449326e-02
2.678071521222591400e-02 3.295598328113555908e-01 -1.270687859505414963e-02
1.019999608397483826e-01 -6.246196627616882324e-01 -1.008504629135131836e-02
-9.358209371566772461e-02 -1.652798652648925781e-01 1.072164904326200485e-02
-1.728421002626419067e-01 5.150254964828491211e-01 -2.874964615330100060e-03
1.407458335161209106e-01 -1.237626448273658752e-01 7.366360630840063095e-03
-7.659988850355148315e-02 6.178237795829772949e-01 -1.048594899475574493e-02
2.767104096710681915e-02 2.070352733135223389e-01 -1.447098143398761749e-02
2.574524655938148499e-02 5.923854112625122070e-01 4.119162913411855698e-04
-1.181754469871520996e-01 4.737775027751922607e-01 -1.136613730341196060e-02
7.177979499101638794e-02 -7.354456782341003418e-01 -7.384563796222209930e-03
6.414630264043807983e-02 -2.872842848300933838e-01 -1.483339350670576096e-02
2.801867760717868805e-02 1.561085879802703857e-01 1.523536536842584610e-02
-8.368349075317382812e-02 1.089238822460174561e-01 1.460274960845708847e-02
-5.963023751974105835e-02 -2.751237154006958008e-01 1.226203702390193939e-02
-1.450378894805908203e-01 5.304595232009887695e-01 -8.426689542829990387e-03
-1.716733872890472412e-01 4.662176370620727539e-01 4.152872134000062943e-03
3.076495137065649033e-03 4.208127260208129883e-01 -1.240630727261304855e-02
1.209322921931743622e-02 2.657879889011383057e-01 -1.446031127125024796e-02
-2.071084082126617432e-02 3.082631826400756836e-01 -1.489556767046451569e-02
-7.949782907962799072e-02 -3.255151510238647461e-01 -7.856242358684539795e-03
-4.541943222284317017e-02 -3.083347678184509277e-01 1.284434180706739426e-02
-1.149425581097602844e-01 2.586721181869506836e-01 -1.241637766361236572e-02
1.398245245218276978e-01 -3.336373865604400635e-01 9.749745950102806091e-03
-1.384404450654983521e-01 3.660588264465332031e-01 -1.015995349735021591e-02
-1.593056321144104004e-01 3.987464904785156250e-01 -7.095993962138891220e-03
-2.976220846176147461e-02 5.286661386489868164e-01 -1.164081320166587830e-02
1.557521969079971313e-01 -5.646855831146240234e-01 6.408803164958953857e-03
6.653647869825363159e-02 -3.632469475269317627e-01 -1.434312108904123306e-02
-1.198654919862747192e-01 -1.885565519332885742e-01 -3.638530382886528969e-03
-4.358500242233276367e-02 7.094425559043884277e-01 -6.120089441537857056e-03
-1.533913761377334595e-01 3.748102486133575439e-01 -8.131953887641429901e-03
1.501199901103973389e-01 -4.778820276260375977e-01 8.133257739245891571e-03
-8.439798653125762939e-02 -3.872934281826019287e-01 3.733606543391942978e-03
-5.124260112643241882e-02 4.273988306522369385e-01 -1.380340754985809326e-02
-3.335310891270637512e-02 -2.241213023662567139e-01 -1.436574757099151611e-02
-1.523533253930509090e-03 2.628201246261596680e-01 -1.495295669883489609e-02
-6.707995384931564331e-02 8.366102352738380432e-03 1.508080121129751205e-02
1.579201519489288330e-01 -1.695268750190734863e-01 2.719831187278032303e-03
5.419539287686347961e-02 2.037495076656341553e-01 -1.284930482506752014e-02
1.464649103581905365e-02 -5.155650973320007324e-01 -1.182584185153245926e-02
1.092656254768371582e-01 -8.076339960098266602e-01 3.777831560000777245e-03
-6.522772461175918579e-02 6.449891626834869385e-02 1.541138906031847000e-02
5.424740910530090332e-02 -1.616402268409729004e-01 -1.541061699390411377e-02
-1.096451282501220703e-01 -4.727464541792869568e-02 1.083633676171302795e-02
-7.884105294942855835e-02 -3.362901806831359863e-01 8.124484680593013763e-03
-6.856094300746917725e-02 2.455438673496246338e-01 -1.494615711271762848e-02
-5.933037400245666504e-02 -2.053297758102416992e-01 1.347525790333747864e-02
-9.773789346218109131e-02 1.244849786162376404e-01 -1.335088815540075302e-02
-5.941372364759445190e-02 3.137916922569274902e-01 1.510003581643104553e-02
2.757545001804828644e-02 4.626866281032562256e-01 9.436001069843769073e-03
-1.303541213274002075e-01 2.475799024105072021e-01 -1.090414356440305710e-02
1.986296381801366806e-03 2.530080378055572510e-01 -1.495554484426975250e-02
1.546643674373626709e-01 -6.499266624450683594e-01 4.938108380883932114e-03
7.805838435888290405e-02 -9.803980588912963867e-02 -1.419095788151025772e-02
-1.533941924571990967e-02 -5.390151739120483398e-01 -9.079830721020698547e-03
8.717857301235198975e-02 -3.715509474277496338e-01 -1.361082214862108231e-02
3.237603977322578430e-02 1.716976054012775421e-03 -1.579953730106353760e-02
-2.617184631526470184e-02 -8.156305551528930664e-02 1.620492339134216309e-02
-1.099117565900087357e-03 5.923972278833389282e-02 1.653378829360008240e-02
1.034768372774124146e-01 8.351618051528930664e-02 9.813328273594379425e-03
-6.102651730179786682e-02 -4.615097343921661377e-01 -5.318089388310909271e-03
7.474436610937118530e-02 -1.211270913481712341e-01 1.480150409042835236e-02
-5.039349198341369629e-02 3.482994064688682556e-02 1.590937934815883636e-02
-1.378756947815418243e-02 4.384136199951171875e-01 1.305025815963745117e-02
-1.561298519372940063e-01 2.912899851799011230e-01 7.686640601605176926e-03
7.340946793556213379e-02 -6.110280156135559082e-01 -1.097697578370571136e-02
5.707639455795288086e-02 -4.781441390514373779e-01 1.378897577524185181e-02
9.648701176047325134e-03 -7.072039842605590820e-01 4.140723962336778641e-03
-1.618415117263793945e-01 2.390286326408386230e-01 -5.331224296241998672e-03
6.293484568595886230e-02 -7.305266857147216797e-01 7.947565987706184387e-03
-9.552896022796630859e-02 -2.468419075012207031e-01 -7.684323471039533615e-03
8.408714830875396729e-02 -5.566950440406799316e-01 1.230764575302600861e-02
2.438441105186939240e-02 3.221471309661865234e-01 1.318664569407701492e-02
9.022641927003860474e-02 2.522487938404083252e-01 7.133112289011478424e-03
3.965317457914352417e-02 -2.850657105445861816e-01 1.570430956780910492e-02
1.217206344008445740e-01 -7.558329105377197266e-01 5.880216602236032486e-03
5.343407765030860901e-02 2.799811065196990967e-01 -1.150336023420095444e-02
-1.366511881351470947e-01 6.820774078369140625e-01 -6.364276632666587830e-03
-7.098747789859771729e-02 -4.639240205287933350e-01 7.876884192228317261e-04
-1.656301319599151611e-03 -1.795982718467712402e-01 1.618619263172149658e-02
1.018905118107795715e-01 -8.594151586294174194e-02 1.253480371087789536e-02
-1.167332977056503296e-01 -1.172934994101524353e-01 -7.631030399352312088e-03
9.765500575304031372e-02 -1.296479105949401855e-01 1.325949840247631073e-02
3.827532753348350525e-02 -3.696931898593902588e-01 -1.459075510501861572e-02
5.744077265262603760e-02 2.716363668441772461e-01 1.146084628999233246e-02
