4.364460706710815430e-01 4.453300237655639648e-01 1.968517750501632690e-01
-5.937210321426391602e-01 -2.141973190009593964e-02 5.676333606243133545e-02
-2.695955336093902588e-01 -3.095767199993133545e-01 -5.999740958213806152e-01
-3.854264914989471436e-01 -1.346241533756256104e-01 -5.717498660087585449e-01
-1.003032550215721130e-01 6.120368838310241699e-01 -3.423410952091217041e-01
1.742505580186843872e-01 -2.474723905324935913e-01 7.029153108596801758e-01
1.939763575792312622e-01 3.585871160030364990e-01 -6.271484494209289551e-01
2.068115472793579102e-01 5.454303622245788574e-01 4.173833727836608887e-01
3.923185765743255615e-01 -5.001350641250610352e-01 1.517314091324806213e-02
1.349491626024246216e-01 -4.797665476799011230e-01 -5.223612785339355469e-01
-5.733026862144470215e-01 -4.144094884395599365e-02 2.236372083425521851e-01
-4.817946255207061768e-01 1.736816391348838806e-02 4.792682528495788574e-01
2.614073455333709717e-01 2.851197719573974609e-01 6.385625004768371582e-01
2.370688170194625854e-01 3.470129072666168213e-01 -6.097446680068969727e-01
-4.577587842941284180e-01 -1.893720962107181549e-02 5.211126804351806641e-01
4.041492640972137451e-01 -4.569333195686340332e-01 -1.928109824657440186e-01
1.714866757392883301e-01 6.508036255836486816e-01 -1.752291619777679443e-01
4.512342512607574463e-01 2.020012438297271729e-01 -4.602471590042114258e-01
3.249316811561584473e-01 5.880109667778015137e-01 8.012471720576286316e-03
4.959128797054290771e-01 -7.894851267337799072e-03 4.261888861656188965e-01
-2.813916504383087158e-01 4.218134880065917969e-01 5.127823352813720703e-01
3.388942405581474304e-02 -2.737132310867309570e-01 7.316408157348632812e-01
-4.654659926891326904e-01 2.822173237800598145e-01 3.801345825195312500e-01
-4.885811805725097656e-01 -5.523298680782318115e-02 -4.338904023170471191e-01
5.176590085029602051e-01 -1.929190009832382202e-01 2.909301519393920898e-01
-2.027148008346557617e-01 -8.674433827400207520e-02 7.503424286842346191e-01
-2.393928915262222290e-01 -6.347445249557495117e-01 1.254955772310495377e-02
-1.132507100701332092e-01 -6.730519533157348633e-01 9.769252687692642212e-02
3.734560012817382812e-01 -7.402370125055313110e-02 6.059485673904418945e-01
-2.765653431415557861e-01 -2.625432014465332031e-01 6.488003134727478027e-01
-5.592760443687438965e-01 2.212432622909545898e-01 6.987071782350540161e-02
4.083787202835083008e-01 -3.440751135349273682e-02 -5.647102594375610352e-01
5.282935500144958496e-01 -1.956745833158493042e-01 -2.483044713735580444e-01
-3.981276452541351318e-01 -5.857821553945541382e-02 6.003189086914062500e-01
-1.969118118286132812e-01 -2.494595758616924286e-02 -7.370355725288391113e-01
4.879586696624755859e-01 -2.868546843528747559e-01 -2.716007530689239502e-01
5.110803246498107910e-01 -3.982932120561599731e-02 -3.864695727825164795e-01
-4.696493148803710938e-01 -3.382066786289215088e-01 -2.885078787803649902e-01
5.358271002769470215e-01 2.920759916305541992e-01 9.183092415332794189e-02
2.737262248992919922e-01 -4.792830049991607666e-01 4.233603477478027344e-01
-4.213155210018157959e-01 -3.824757039546966553e-01 3.721389472484588623e-01
-3.572170138359069824e-01 -5.231253504753112793e-01 -2.052604258060455322e-01
1.095049828290939331e-01 -5.798318386077880859e-01 -3.813837766647338867e-01
-5.183961987495422363e-01 2.859554886817932129e-01 2.084434330463409424e-01
-5.191956087946891785e-02 6.115649938583374023e-01 3.770564198493957520e-01
-8.723317831754684448e-02 -5.549764037132263184e-01 4.658722877502441406e-01
-5.032936334609985352e-01 2.290439456701278687e-01 3.385683894157409668e-01
5.632207393646240234e-01 -3.558982163667678833e-02 -2.222934961318969727e-01
-1.681647151708602905e-01 1.186840310692787170e-01 -7.386707067489624023e-01
5.105164051055908203e-01 2.742283940315246582e-01 -2.619526088237762451e-01
-5.545718595385551453e-04 -2.893440425395965576e-01 -7.079638838768005371e-01
5.829910635948181152e-01 -7.063980400562286377e-02 -4.339283332228660583e-02
-5.843133926391601562e-01 -1.185867935419082642e-02 1.632609963417053223e-01
3.234560191631317139e-01 -2.274688035249710083e-01 6.051169633865356445e-01
6.172447651624679565e-02 4.176225364208221436e-01 6.361809968948364258e-01
-3.486163318157196045e-01 1.215495392680168152e-01 -6.141545176506042480e-01
9.899566322565078735e-02 5.677780508995056152e-01 4.471154808998107910e-01
-2.369944155216217041e-01 2.194870561361312866e-01 -6.717370748519897461e-01
2.766232490539550781e-01 -5.849686861038208008e-01 -1.364954560995101929e-01
-3.524663150310516357e-01 -5.466616749763488770e-01 -1.317207664251327515e-01
-3.234863281250000000e-01 -1.414839774370193481e-01 6.599412560462951660e-01
3.833185508847236633e-02 4.930427968502044678e-01 5.645153522491455078e-01
7.681700587272644043e-02 -5.575823783874511719e-01 -4.362141489982604980e-01
-5.477089285850524902e-01 2.475514113903045654e-01 1.107955873012542725e-01
-3.837353587150573730e-01 2.421922516077756882e-03 -5.927820205688476562e-01
2.597312033176422119e-01 6.150107979774475098e-01 -1.554971784353256226e-01
3.865693509578704834e-02 -3.151808679103851318e-01 -6.909784674644470215e-01
-2.252812236547470093e-01 -4.663725197315216064e-01 -4.912370443344116211e-01
6.952013820409774780e-02 -5.628976821899414062e-01 4.479489624500274658e-01
3.780481815338134766e-01 4.409781098365783691e-01 3.584931790828704834e-01
5.104791522026062012e-01 8.495198190212249756e-02 -3.860711157321929932e-01
-3.779774904251098633e-01 -1.771938502788543701e-01 5.940042734146118164e-01
-9.196133166551589966e-02 2.151251435279846191e-01 -7.358878254890441895e-01
9.090351313352584839e-02 -4.294198453426361084e-01 6.098544597625732422e-01
-8.253044635057449341e-02 6.483404040336608887e-01 -2.551552653312683105e-01
-4.576637446880340576e-01 4.330931007862091064e-01 -4.137020930647850037e-02
-3.359954431653022766e-02 5.646640807390213013e-02 -7.806972265243530273e-01
7.150797545909881592e-02 -1.762455999851226807e-01 -7.500109076499938965e-01
-2.319676429033279419e-02 -6.047070622444152832e-01 -3.635254502296447754e-01
4.017089307308197021e-01 1.849676668643951416e-01 5.455960035324096680e-01
-4.886634051799774170e-01 -9.946928173303604126e-02 4.551961123943328857e-01
-1.742168962955474854e-01 -2.899573147296905518e-01 6.929960846900939941e-01
-1.950233131647109985e-01 1.843896061182022095e-01 -7.088251709938049316e-01
-1.385286301374435425e-01 -3.791167140007019043e-01 -6.246576309204101562e-01
2.204855531454086304e-02 5.374659299850463867e-01 5.099185109138488770e-01
5.486813187599182129e-01 -2.320603281259536743e-01 1.383824646472930908e-02
-7.980673015117645264e-02 4.019339978694915771e-01 -6.309574246406555176e-01
5.824556946754455566e-01 -6.125374883413314819e-02 -7.153286784887313843e-02
4.625412821769714355e-02 1.388645619153976440e-01 7.814463973045349121e-01
1.260556280612945557e-01 -6.667613983154296875e-01 -4.171011969447135925e-03
-5.215262174606323242e-01 -1.223742142319679260e-01 -3.421379625797271729e-01
5.782687067985534668e-01 -1.067761331796646118e-01 3.961311653256416321e-02
-4.734221100807189941e-01 -2.091153562068939209e-01 4.363098740577697754e-01
-4.168202280998229980e-01 5.607225745916366577e-02 -5.479337573051452637e-01
4.161276221275329590e-01 2.645368874073028564e-01 4.816280305385589600e-01
-3.968400657176971436e-01 3.503376543521881104e-01 -4.160311818122863770e-01
-5.864097476005554199e-01 6.176107376813888550e-02 1.185707375407218933e-01
-9.678639471530914307e-02 -5.293873548507690430e-01 5.017895102500915527e-01
-1.564872711896896362e-01 3.134037554264068604e-01 6.850637793540954590e-01
3.916006088256835938e-01 -4.922244548797607422e-01 -1.042827889323234558e-01
1.976800709962844849e-01 -6.398128867149353027e-01 -3.359155729413032532e-02
-5.894974470138549805e-01 -5.192907899618148804e-02 1.081340238451957703e-01
5.075814723968505859e-01 -5.647195503115653992e-03 4.005772769451141357e-01
-1.554602533578872681e-01 1.044767275452613831e-01 7.660261988639831543e-01
5.866562724113464355e-01 4.897827655076980591e-02 -5.980441719293594360e-02
-3.017939329147338867e-01 -5.542308092117309570e-01 -2.459916025400161743e-01
1.359392851591110229e-01 -6.608428955078125000e-01 -6.522547453641891479e-02
4.887731969356536865e-01 -3.397265672683715820e-01 -1.638718843460083008e-01
5.422037839889526367e-01 -1.497846841812133789e-01 2.418624013662338257e-01
-2.151611149311065674e-01 -5.899258255958557129e-01 -2.875962555408477783e-01
-1.468172669410705566e-01 6.592074632644653320e-01 1.540171205997467041e-01
4.340172111988067627e-01 1.614600867033004761e-01 5.084853768348693848e-01
-2.975834310054779053e-01 6.314758211374282837e-03 6.991748213768005371e-01
-5.385816097259521484e-01 1.133164167404174805e-01 -2.907538414001464844e-01
-4.785558581352233887e-01 8.026774227619171143e-02 4.749978780746459961e-01
-3.466345071792602539e-01 3.324788510799407959e-01 -5.052833557128906250e-01
5.293396711349487305e-01 2.320433259010314941e-01 2.433668375015258789e-01
-2.557694911956787109e-01 3.510966598987579346e-01 6.015808582305908203e-01
-4.569534361362457275e-01 3.332144618034362793e-01 3.394519686698913574e-01
4.642614722251892090e-01 1.681009232997894287e-01 4.546328186988830566e-01
5.384724736213684082e-01 2.697172760963439941e-01 -1.386352032423019409e-01
2.745453119277954102e-01 4.761839658021926880e-02 7.024176120758056641e-01
-1.255779564380645752e-01 -6.360754370689392090e-01 -2.455462664365768433e-01
2.011204957962036133e-01 -3.546572923660278320e-01 6.219230890274047852e-01
-4.846543967723846436e-01 -2.815272212028503418e-01 3.516673445701599121e-01
-4.243879020214080811e-01 -3.649522364139556885e-01 3.890892863273620605e-01
-4.241258502006530762e-01 -1.207192316651344299e-01 -5.259680747985839844e-01
-7.371732965111732483e-03 2.663643360137939453e-01 7.402397990226745605e-01
-3.722161352634429932e-01 3.663085997104644775e-01 -4.381206631660461426e-01
-1.854620873928070068e-01 3.283445537090301514e-01 6.623684167861938477e-01
-5.387514829635620117e-01 1.864778846502304077e-01 2.657983899116516113e-01
1.512197870761156082e-02 6.292207241058349609e-01 -3.341358900070190430e-01
5.669521689414978027e-01 -1.333533525466918945e-01 -1.235343739390373230e-01
-3.323778510093688965e-01 1.366771459579467773e-01 -6.259277462959289551e-01
-5.176489353179931641e-01 2.273765206336975098e-01 -2.679472565650939941e-01
5.453976392745971680e-01 1.207964643836021423e-01 2.733807265758514404e-01
-9.126032702624797821e-03 -5.593333244323730469e-01 -4.480515718460083008e-01
-2.613036930561065674e-01 -2.654616348445415497e-02 -7.003183960914611816e-01
-1.544620990753173828e-01 4.538502395153045654e-01 -5.545354485511779785e-01
3.883731067180633545e-01 3.757320940494537354e-01 -4.251608550548553467e-01
-1.009667068719863892e-01 1.026976481080055237e-01 -7.637686133384704590e-01
-3.866671025753021240e-01 -4.403763413429260254e-01 -3.228370547294616699e-01
3.435186743736267090e-01 -4.706546962261199951e-01 3.291987478733062744e-01
1.073050126433372498e-02 1.982329785823822021e-01 -7.534241080284118652e-01
5.497304201126098633e-01 -6.246554106473922729e-02 -2.676210999488830566e-01
1.026535183191299438e-01 -4.742456376552581787e-01 5.590045452117919922e-01
2.079027742147445679e-01 -6.948704272508621216e-02 -7.295218110084533691e-01
3.550942242145538330e-01 5.574621558189392090e-01 9.548339247703552246e-02
-4.759988486766815186e-01 -4.234609752893447876e-02 4.890424609184265137e-01
-5.501542687416076660e-01 2.539252936840057373e-01 1.066451333463191986e-02
1.680192798376083374e-01 6.081540137529373169e-02 7.614942789077758789e-01
-2.676598727703094482e-01 -5.451583862304687500e-01 -3.239852786064147949e-01
4.616036117076873779e-01 3.043960593640804291e-02 4.917917847633361816e-01
3.586615249514579773e-02 -6.084048748016357422e-01 3.700604736804962158e-01
-3.666503429412841797e-01 4.801145195960998535e-01 -2.751872837543487549e-01
3.008681535720825195e-01 -5.322222113609313965e-01 2.761969268321990967e-01
3.306309282779693604e-01 -5.481852889060974121e-01 1.275605857372283936e-01
-2.669650018215179443e-01 3.866380155086517334e-01 -5.413661003112792969e-01
1.581278443336486816e-01 2.599307596683502197e-01 7.105230689048767090e-01
2.669991552829742432e-01 5.466399788856506348e-01 3.490455448627471924e-01
-3.242073953151702881e-01 -3.094480335712432861e-01 -5.513119697570800781e-01
-2.468894273042678833e-01 -6.079815030097961426e-01 2.074000090360641479e-01
5.305055975914001465e-01 -2.102677524089813232e-01 -2.213406264781951904e-01
-1.062785834074020386e-01 2.416231185197830200e-01 7.387350797653198242e-01
3.847703039646148682e-01 -2.240776270627975464e-02 5.996584892272949219e-01
3.833690583705902100e-01 4.271861016750335693e-01 -3.680065870285034180e-01
5.199033021926879883e-01 3.013664856553077698e-02 -3.705771565437316895e-01
-1.037853211164474487e-01 -3.559794723987579346e-01 -6.532205939292907715e-01
-1.646061390638351440e-01 6.612043976783752441e-01 9.435373544692993164e-02
-1.697455197572708130e-01 -5.691185593605041504e-01 -3.765436410903930664e-01
2.811302542686462402e-01 -2.644499540328979492e-01 -6.140098571777343750e-01
-4.667832553386688232e-01 -4.027235209941864014e-01 -1.729745417833328247e-01
5.639345198869705200e-02 2.177953869104385376e-01 -7.437116503715515137e-01
3.329765200614929199e-01 5.622702091932296753e-02 -6.474926471710205078e-01
-5.303026437759399414e-01 -1.952377408742904663e-01 3.045042753219604492e-01
2.067823335528373718e-02 -5.381238460540771484e-02 -7.809099555015563965e-01
3.957338035106658936e-01 -4.719598889350891113e-01 -1.753591448068618774e-01
3.512948751449584961e-01 3.430222868919372559e-01 5.114352703094482422e-01
6.215076893568038940e-02 -2.040899097919464111e-01 -7.418605685234069824e-01
-4.015895351767539978e-02 1.495548188686370850e-01 7.808022499084472656e-01
-5.633162856101989746e-01 -1.824120283126831055e-01 -1.415618509054183960e-01
4.710312187671661377e-01 -2.709788978099822998e-01 -3.395352959632873535e-01
-4.520220756530761719e-01 -1.023040413856506348e-01 5.187882781028747559e-01
5.844510793685913086e-01 -6.532654166221618652e-02 8.537815883755683899e-04
-3.582087159156799316e-01 1.662442833185195923e-01 -5.901792645454406738e-01
-3.229184448719024658e-01 1.684803217649459839e-01 6.486274600028991699e-01
-5.906574726104736328e-01 5.847151391208171844e-03 1.055869832634925842e-01
-3.635245263576507568e-01 -2.144530862569808960e-01 5.940645933151245117e-01
4.494445025920867920e-02 -1.342038810253143311e-01 7.810717821121215820e-01
-1.795298606157302856e-01 -1.858878880739212036e-01 7.366902828216552734e-01
-3.593047261238098145e-01 4.803345799446105957e-01 -2.913057208061218262e-01
4.280283302068710327e-02 -5.312514901161193848e-01 -4.857399165630340576e-01
8.679813146591186523e-02 -4.102862179279327393e-01 -6.120094060897827148e-01
5.458334088325500488e-01 2.133551687002182007e-01 1.937471777200698853e-01
5.769835710525512695e-01 -4.198154807090759277e-02 -1.420155614614486694e-01
-2.136446386575698853e-01 5.542121529579162598e-01 3.879581689834594727e-01
-4.468108415603637695e-01 -4.417753219604492188e-01 1.746116578578948975e-01
-5.740725398063659668e-01 1.579775810241699219e-01 9.268650412559509277e-02
5.570670962333679199e-01 -1.338466703891754150e-01 -1.873252540826797485e-01
3.965487703680992126e-02 5.026853084564208984e-01 5.530456304550170898e-01
1.908275485038757324e-02 -6.655601859092712402e-01 -1.790414750576019287e-01
-1.841654181480407715e-01 -6.008127331733703613e-02 7.618691921234130859e-01
-4.310666620731353760e-01 1.642580181360244751e-01 5.243826508522033691e-01
-5.773117020726203918e-02 6.898826956748962402e-01 -4.733855649828910828e-02
-4.849161207675933838e-01 -3.845431208610534668e-01 1.712979823350906372e-01
1.775483340024948120e-01 -1.427495628595352173e-01 -7.283092737197875977e-01
1.666537225246429443e-01 3.259958028793334961e-01 6.706004142761230469e-01
5.101172924041748047e-01 -2.235869914293289185e-01 2.840157747268676758e-01
-5.229116082191467285e-01 1.744803413748741150e-02 3.922296464443206787e-01
9.525439143180847168e-02 4.726512730121612549e-01 5.753358006477355957e-01
1.582719385623931885e-01 -2.216833531856536865e-01 7.217658758163452148e-01
1.107349619269371033e-01 -3.200130164623260498e-02 7.827389836311340332e-01
4.134584665298461914e-01 -4.170650541782379150e-01 -2.647231817245483398e-01
6.263163685798645020e-02 6.904152631759643555e-01 -6.563916802406311035e-02
-3.414385616779327393e-01 2.430416494607925415e-01 5.969460010528564453e-01
2.374221533536911011e-01 1.511355340480804443e-01 7.098005414009094238e-01
-4.294767677783966064e-01 -1.784841269254684448e-01 -4.972425997257232666e-01
-1.163252070546150208e-01 -1.309131234884262085e-01 7.727087140083312988e-01
-5.236368775367736816e-01 3.129277229309082031e-01 -6.339945644140243530e-02
2.404215335845947266e-01 2.828908264636993408e-01 6.546724438667297363e-01
1.848634183406829834e-01 -2.098171412944793701e-01 -7.020995020866394043e-01
7.815022766590118408e-02 -6.198208332061767578e-01 -3.076777160167694092e-01
-3.937886953353881836e-01 2.739651501178741455e-02 -5.800486803054809570e-01
-2.995766401290893555e-01 -5.535728335380554199e-01 2.810311019420623779e-01
2.076466679573059082e-01 -5.661836862564086914e-01 3.425479829311370850e-01
-4.592846333980560303e-01 3.905870318412780762e-01 -2.036783993244171143e-01
4.268814623355865479e-01 -3.823387324810028076e-01 3.017994463443756104e-01
3.928786516189575195e-01 -4.994943141937255859e-01 -8.925062604248523712e-03
5.582128167152404785e-01 -1.286024451255798340e-01 1.874793320894241333e-01
-4.647223651409149170e-01 -3.188213706016540527e-01 3.583204150199890137e-01
-3.352939486503601074e-01 -3.334420323371887207e-01 -5.212319493293762207e-01
7.648503780364990234e-02 3.575740158557891846e-01 -6.687136888504028320e-01
7.808147370815277100e-02 2.815801203250885010e-01 -7.130151391029357910e-01
-2.542932704091072083e-02 5.556518435478210449e-01 4.826463162899017334e-01
5.216701030731201172e-01 -1.932805627584457397e-01 -2.747897505760192871e-01
-5.245532989501953125e-01 -2.859967350959777832e-01 -1.791113913059234619e-01
4.339952468872070312e-01 -8.256510645151138306e-02 5.245256423950195312e-01
5.014589428901672363e-01 -3.427255153656005859e-01 4.471663758158683777e-02
5.858004689216613770e-01 8.600956201553344727e-02 -2.483527734875679016e-02
5.816669464111328125e-01 -7.863573729991912842e-02 5.171449482440948486e-02
-1.433810442686080933e-01 3.194642066955566406e-02 -7.589119672775268555e-01
-2.800161242485046387e-01 4.462860226631164551e-01 -4.648495018482208252e-01
3.190546035766601562e-01 -4.414839446544647217e-01 -4.087129533290863037e-01
5.496135354042053223e-02 2.236764729022979736e-01 7.542911171913146973e-01
-4.783023595809936523e-01 4.031443893909454346e-01 5.071398615837097168e-02
-4.137967899441719055e-02 3.951676189899444580e-01 6.579269170761108398e-01
-9.805481880903244019e-02 1.259355247020721436e-01 -7.601293325424194336e-01
5.301167368888854980e-01 1.869859099388122559e-01 -2.846015393733978271e-01
-2.513421475887298584e-01 4.491647481918334961e-01 5.100518465042114258e-01
-4.698380455374717712e-02 2.030115276575088501e-01 7.641285061836242676e-01
-2.474464774131774902e-01 6.167356967926025391e-01 -1.267057359218597412e-01
-2.104243487119674683e-01 6.461386084556579590e-01 -2.482591569423675537e-02
4.437260627746582031e-01 -3.584076762199401855e-01 2.970288097858428955e-01
-1.014270074665546417e-02 5.525438189506530762e-01 4.885365366935729980e-01
-5.589618682861328125e-01 -1.707487106323242188e-01 -1.804981827735900879e-01
-1.744451224803924561e-01 6.139932274818420410e-01 -2.751801908016204834e-01
1.492397040128707886e-01 3.273493349552154541e-01 6.772345900535583496e-01
-2.857123911380767822e-01 -6.031540632247924805e-01 1.141121909022331238e-01
3.998512327671051025e-01 -2.616630196571350098e-01 4.898544847965240479e-01
4.011799693107604980e-01 4.863024353981018066e-01 2.065038383007049561e-01
-2.044491171836853027e-01 -6.459310650825500488e-01 -7.153737545013427734e-02
4.910149574279785156e-01 2.994340360164642334e-01 2.918955385684967041e-01
3.308621048927307129e-01 5.817548036575317383e-01 5.232600867748260498e-02
-8.164290338754653931e-02 -6.809018254280090332e-01 6.316745281219482422e-02
-1.704737097024917603e-01 -6.289520859718322754e-01 -2.253968566656112671e-01
4.635162651538848877e-01 4.393659830093383789e-01 -4.785273224115371704e-02
2.125582098960876465e-02 -3.033608198165893555e-01 7.170713543891906738e-01
1.339830607175827026e-01 6.793206930160522461e-01 -4.003680497407913208e-02
-1.076787114143371582e-01 6.799576282501220703e-01 7.143207639455795288e-02
3.531018793582916260e-01 -5.388351678848266602e-01 1.147507689893245697e-02
2.667125761508941650e-01 -8.796400576829910278e-02 -6.916435360908508301e-01
3.802294135093688965e-01 5.297034978866577148e-01 -1.224858239293098450e-01
4.436812102794647217e-01 -4.025068581104278564e-01 2.047936767339706421e-01
-5.576785802841186523e-01 2.311709076166152954e-01 2.299513295292854309e-02
-3.791780769824981689e-01 3.492850065231323242e-01 -4.453797936439514160e-01
-4.519682824611663818e-01 3.038097918033599854e-01 -3.604238629341125488e-01
-3.101976215839385986e-02 -6.191417574882507324e-01 -3.301666676998138428e-01
-2.866043150424957275e-01 -3.553076982498168945e-01 -5.519262552261352539e-01
1.698253601789474487e-01 -5.784209370613098145e-01 3.558572828769683838e-01
-3.726757764816284180e-01 3.341327607631683350e-01 4.936159253120422363e-01
-2.438472211360931396e-01 5.970188230276107788e-02 -7.089697122573852539e-01
-5.692650079727172852e-01 6.510687619447708130e-02 2.286964505910873413e-01
-3.130985498428344727e-01 3.874560594558715820e-01 5.158239603042602539e-01
2.465682774782180786e-01 -5.692579150199890137e-01 2.791544795036315918e-01
3.347980380058288574e-01 4.813863039016723633e-01 3.685100972652435303e-01
7.892934232950210571e-02 1.015923693776130676e-01 7.835295796394348145e-01
3.102970123291015625e-01 5.984690785408020020e-01 -1.775835826992988586e-02
2.302023917436599731e-01 -5.617008805274963379e-01 -3.101869821548461914e-01
-5.422380566596984863e-01 -2.873159348964691162e-01 8.035272359848022461e-02
-1.802279986441135406e-02 -6.140636205673217773e-01 -3.430078625679016113e-01
-5.823473334312438965e-01 3.196320682764053345e-02 -1.366883516311645508e-01
4.676456451416015625e-01 2.829702496528625488e-01 -3.703655898571014404e-01
-1.085716485977172852e-01 -1.011147946119308472e-01 -7.606156468391418457e-01
-5.097919106483459473e-01 -3.321782648563385010e-01 1.860557943582534790e-01
1.360068321228027344e-01 -3.977063000202178955e-01 6.214685440063476562e-01
3.524076044559478760e-01 -5.259091854095458984e-01 -1.346908956766128540e-01
6.720080226659774780e-02 -6.627627611160278320e-01 -1.658200472593307495e-01
-2.358306199312210083e-01 -3.427993059158325195e-01 -6.013129949569702148e-01
-8.713845163583755493e-02 -2.854514718055725098e-01 -7.010331749916076660e-01
5.539621710777282715e-01 2.512923479080200195e-01 2.064925804734230042e-02
2.007163912057876587e-01 -3.841419517993927002e-01 -5.848727822303771973e-01
3.202657997608184814e-01 5.914811491966247559e-01 -6.549932993948459625e-03
-3.645579218864440918e-01 -1.045676320791244507e-01 6.300241351127624512e-01
-5.849665999412536621e-01 -8.828181773424148560e-02 -9.310772269964218140e-02
-7.749267667531967163e-02 -6.790882945060729980e-01 -7.109125703573226929e-02
2.737628519535064697e-01 -1.852501630783081055e-01 -6.584295630455017090e-01
-5.046680569648742676e-01 -3.364110589027404785e-01 -1.684920936822891235e-01
3.672167062759399414e-01 -4.375967085361480713e-01 3.429954349994659424e-01
3.989384770393371582e-01 -2.455468922853469849e-01 -4.963686764240264893e-01
9.261712431907653809e-02 -9.104789048433303833e-02 -7.668370008468627930e-01
-3.989653587341308594e-01 -5.035434365272521973e-01 1.568992584943771362e-01
5.648209452629089355e-01 2.107626050710678101e-01 -3.816791623830795288e-02
1.384686585515737534e-02 -3.018998503684997559e-01 -7.006363868713378906e-01
-2.878843545913696289e-01 -5.872927308082580566e-01 -1.659522354602813721e-01
-5.059138536453247070e-01 -3.827296197414398193e-02 4.310773909091949463e-01
1.881714537739753723e-02 6.807013154029846191e-01 1.699677854776382446e-01
-4.102239906787872314e-01 -4.679027497768402100e-01 -2.058445811271667480e-01
-8.330328017473220825e-02 -3.767592310905456543e-01 -6.428405642509460449e-01
1.185307204723358154e-01 6.840479969978332520e-01 3.899926785379648209e-03
2.617703974246978760e-01 5.730555653572082520e-01 -2.932977378368377686e-01
1.057754456996917725e-01 -1.128682568669319153e-01 -7.596980929374694824e-01
-4.075297415256500244e-01 -4.912346601486206055e-01 -1.386624872684478760e-01
-3.595470190048217773e-01 -3.457454442977905273e-01 -4.817679822444915771e-01
8.307011425495147705e-02 4.811698794364929199e-01 -5.596229434013366699e-01
-2.096944898366928101e-01 -6.377405524253845215e-01 1.453508883714675903e-01
1.469136178493499756e-01 6.515825390815734863e-01 2.123783528804779053e-01
-3.123391270637512207e-01 4.239784479141235352e-01 -4.544646143913269043e-01
-8.514609187841415405e-02 -6.670386791229248047e-01 -1.508074253797531128e-01
2.572098374366760254e-01 1.126097664237022400e-01 7.058789730072021484e-01
-9.676930308341979980e-02 -6.463480591773986816e-01 -2.312263250350952148e-01
4.148566126823425293e-01 3.955491185188293457e-01 3.531722724437713623e-01
5.034700632095336914e-01 2.302880883216857910e-01 -3.293035924434661865e-01
1.767046004533767700e-01 2.670849263668060303e-01 -6.901712417602539062e-01
3.788210451602935791e-01 -5.124285817146301270e-01 5.505687370896339417e-02
4.874930977821350098e-01 -1.560935378074645996e-01 -3.953294157981872559e-01
-5.565530434250831604e-02 -6.256850361824035645e-01 3.319747149944305420e-01
1.760593429207801819e-02 6.400908231735229492e-01 -3.064856529235839844e-01
-2.468819916248321533e-01 5.878089070320129395e-01 -2.454226762056350708e-01
-2.312539517879486084e-01 3.982515335083007812e-01 5.796517133712768555e-01
-4.868431389331817627e-01 -1.735742241144180298e-01 -3.983351588249206543e-01
7.882380485534667969e-02 6.909763216972351074e-01 -1.411439385265111923e-02
1.315032243728637695e-01 6.016037613153457642e-02 7.751021981239318848e-01
3.784580826759338379e-01 4.454022049903869629e-01 -3.490922451019287109e-01
-1.297198086977005005e-01 5.500817298889160156e-01 -4.433434009552001953e-01
-1.284488886594772339e-01 2.093715369701385498e-01 -7.276691198348999023e-01
4.153080582618713379e-01 3.174721300601959229e-01 4.410382807254791260e-01
-2.878097072243690491e-02 6.803966760635375977e-01 1.648326814174652100e-01
-3.146634995937347412e-01 4.247017502784729004e-01 4.724221229553222656e-01
4.879242479801177979e-01 -1.826420128345489502e-01 3.807741403579711914e-01
-5.358541607856750488e-01 -5.542587488889694214e-02 -3.239188492298126221e-01
2.419605851173400879e-01 -7.662757486104965210e-02 -7.095866799354553223e-01
5.678378939628601074e-01 -1.377584785223007202e-02 2.058461308479309082e-01
1.010223031044006348e-01 -6.117892265319824219e-01 3.330210447311401367e-01
-2.611810564994812012e-01 5.197726488113403320e-01 -3.785559237003326416e-01
5.530341863632202148e-01 1.602928042411804199e-01 -2.178467512130737305e-01
4.962747991085052490e-01 1.677988469600677490e-01 -3.885865211486816406e-01
3.284851834177970886e-02 2.361259013414382935e-01 7.519208788871765137e-01
-5.303106904029846191e-01 -2.389719039201736450e-01 2.594516873359680176e-01
-3.133240044116973877e-01 -5.894368290901184082e-01 6.968997418880462646e-02
-5.155202746391296387e-01 -2.744892835617065430e-01 2.677526772022247314e-01
1.326192170381546021e-01 3.781879544258117676e-01 -6.393661499023437500e-01
-4.256057441234588623e-01 -1.555209010839462280e-01 5.417994856834411621e-01
1.539484709501266479e-01 -9.467138908803462982e-03 -7.579252123832702637e-01
4.842247664928436279e-01 -7.874604314565658569e-02 -4.351598024368286133e-01
-3.738715052604675293e-01 5.325992107391357422e-01 5.534157156944274902e-02
-2.134057879447937012e-01 -3.494396507740020752e-01 -6.107534170150756836e-01
1.213732734322547913e-01 5.581870079040527344e-01 4.532555341720581055e-01
-1.492617428302764893e-01 -8.082806318998336792e-02 7.723355889320373535e-01
2.426830381155014038e-01 -4.346098601818084717e-01 -5.030085444450378418e-01
-1.274926215410232544e-01 6.002060770988464355e-01 3.666135668754577637e-01
3.975957930088043213e-01 -1.611666828393936157e-01 -5.446519255638122559e-01
-1.884368658065795898e-01 -1.559859514236450195e-01 7.420310378074645996e-01
-1.907651573419570923e-01 6.498885750770568848e-01 -8.916018158197402954e-02
-1.943494826555252075e-01 6.387587785720825195e-01 -1.521369814872741699e-01
-1.404083967208862305e-01 6.717061996459960938e-01 -4.869939759373664856e-02
5.313689112663269043e-01 2.904796302318572998e-01 1.342394500970840454e-01
-2.836973071098327637e-01 2.936192452907562256e-01 -5.984126925468444824e-01
-5.356564372777938843e-02 -5.055937767028808594e-01 5.424569249153137207e-01
-2.385161519050598145e-01 -5.182481408119201660e-01 4.339332580566406250e-01
3.815180435776710510e-02 -5.494511723518371582e-01 -4.594351649284362793e-01
-1.664833128452301025e-01 -5.360472798347473145e-01 4.611363112926483154e-01
2.800552546977996826e-01 4.565285444259643555e-01 -4.711445271968841553e-01
-1.048097386956214905e-01 6.158136129379272461e-01 3.450442850589752197e-01
1.527253091335296631e-01 -6.144189834594726562e-01 -2.651395797729492188e-01
5.434701442718505859e-01 -2.446341663599014282e-01 -4.410181939601898193e-02
4.191664457321166992e-01 -4.025971293449401855e-01 2.852598130702972412e-01
-2.289385721087455750e-02 6.925876736640930176e-01 7.032502442598342896e-02
-3.854356408119201660e-01 -3.546590209007263184e-01 -4.372441768646240234e-01
4.856340587139129639e-01 -2.043180316686630249e-01 3.703099787235260010e-01
-3.171884417533874512e-01 -2.212536036968231201e-01 -6.095337271690368652e-01
4.562624990940093994e-01 4.518135488033294678e-01 -5.747234448790550232e-03
3.160097897052764893e-01 -3.988562226295471191e-01 4.774305224418640137e-01
-1.700858026742935181e-01 5.533341765403747559e-01 4.278374314308166504e-01
3.368093967437744141e-01 4.363524913787841797e-01 -4.290154278278350830e-01
-1.850924640893936157e-01 4.966821968555450439e-01 5.029147863388061523e-01
5.374540388584136963e-02 -6.819141507148742676e-01 2.563427761197090149e-02
-4.566970169544219971e-01 -4.434814453125000000e-01 -7.048647105693817139e-02
2.764461636543273926e-01 -5.947197079658508301e-01 -6.547374278306961060e-02
3.612431585788726807e-01 -4.524635970592498779e-01 -3.192413449287414551e-01
-7.356660813093185425e-02 -4.041941761970520020e-01 -6.227029561996459961e-01
-6.573725491762161255e-02 5.133743882179260254e-01 5.346200466156005859e-01
-1.942545771598815918e-01 4.816288650035858154e-01 -4.982030689716339111e-01
-1.513900309801101685e-01 3.003903031349182129e-01 6.948252916336059570e-01
-2.359464615583419800e-01 4.946985840797424316e-01 -4.458826780319213867e-01
-1.605398952960968018e-01 -6.612374782562255859e-01 -7.296406477689743042e-02
-1.121666207909584045e-01 4.158582985401153564e-01 -6.094210147857666016e-01
-1.726080328226089478e-01 5.416196584701538086e-01 4.456889927387237549e-01
3.446552157402038574e-01 4.110286533832550049e-01 4.521050751209259033e-01
-1.997376680374145508e-01 -6.219439506530761719e-01 -2.111034691333770752e-01
-2.392257899045944214e-01 -5.370341241359710693e-02 7.354578375816345215e-01
7.290842384099960327e-02 -8.890082687139511108e-02 7.853922247886657715e-01
1.836839914321899414e-01 6.528608798980712891e-01 1.473209559917449951e-01
-1.779396086931228638e-01 -6.503130793571472168e-01 -1.156185865402221680e-01
-4.186683893203735352e-02 -1.155654788017272949e-01 -7.696644067764282227e-01
-2.820410951972007751e-02 -4.888493418693542480e-01 -5.442354083061218262e-01
5.003281235694885254e-01 -3.339813947677612305e-01 1.118096113204956055e-01
5.590610504150390625e-01 7.195494323968887329e-02 2.401517480611801147e-01
-4.364077746868133545e-01 -3.422387540340423584e-01 3.926350176334381104e-01
-2.771417796611785889e-02 3.668260276317596436e-01 6.804722547531127930e-01
-4.197478294372558594e-01 -2.167686074972152710e-01 5.223305225372314453e-01
-5.139918327331542969e-01 1.700634807348251343e-01 -3.283607363700866699e-01
5.492684841156005859e-01 -3.882651031017303467e-02 -2.772162556648254395e-01
-5.115455985069274902e-01 -1.222559139132499695e-01 -3.670424222946166992e-01
-5.687557458877563477e-01 -1.119571626186370850e-01 -1.826362013816833496e-01
-5.346482396125793457e-01 -1.659964174032211304e-01 3.130606114864349365e-01
4.808024764060974121e-01 3.987605571746826172e-01 -1.279684007167816162e-01
4.428354278206825256e-02 6.946667432785034180e-01 -6.755575537681579590e-03
1.164164915680885315e-01 -2.236310541629791260e-01 -7.222664356231689453e-01
2.393863052129745483e-01 6.171907782554626465e-01 1.993714720010757446e-01
4.669268429279327393e-01 2.607507109642028809e-01 -3.914415240287780762e-01
-2.370279729366302490e-01 -6.278203725814819336e-01 1.294282972812652588e-01
-3.898830711841583252e-01 -1.447051316499710083e-01 5.916225910186767578e-01
1.322313398122787476e-01 -5.611606240272521973e-01 4.199771583080291748e-01
4.535967707633972168e-01 -3.793599605560302734e-01 -2.186962515115737915e-01
-3.088481426239013672e-01 -4.467018842697143555e-01 4.625217616558074951e-01
1.903552561998367310e-03 8.064404129981994629e-02 -7.798551321029663086e-01
1.330498307943344116e-01 -7.139364629983901978e-02 7.720575332641601562e-01
1.847315430641174316e-01 6.556410789489746094e-01 -1.218128427863121033e-01
-2.390764206647872925e-01 4.469980001449584961e-01 -5.038992166519165039e-01
-3.227491676807403564e-01 3.623412251472473145e-01 -5.071158409118652344e-01
-3.319499790668487549e-01 1.777874827384948730e-01 -6.127519607543945312e-01
-2.964106500148773193e-01 -5.894811749458312988e-01 1.581462025642395020e-01
-5.021109580993652344e-01 -3.665114641189575195e-01 -9.096297621726989746e-02
-1.063458397984504700e-01 -3.257136642932891846e-01 6.943954229354858398e-01
-3.760679066181182861e-01 4.512411057949066162e-01 3.357959091663360596e-01
-3.174104690551757812e-01 -4.078588187694549561e-01 -4.707059264183044434e-01
1.647735834121704102e-01 -3.393452465534210205e-01 -6.397995352745056152e-01
8.823187649250030518e-02 -6.707291007041931152e-01 1.076451018452644348e-01
-5.513015389442443848e-01 2.299111634492874146e-01 -1.014429926872253418e-01
-5.279875397682189941e-01 2.721822559833526611e-01 -1.586643010377883911e-01
4.100654721260070801e-01 -4.701079726219177246e-01 -1.112952530384063721e-01
1.317262202501296997e-01 -5.683129429817199707e-01 -3.905484080314636230e-01
4.666746258735656738e-01 4.327410161495208740e-01 6.548211723566055298e-02
-5.048687458038330078e-01 -2.955521047115325928e-01 -2.424271255731582642e-01
-1.906372904777526855e-01 -5.851225256919860840e-01 -3.256214857101440430e-01
-2.924177944660186768e-01 5.872378349304199219e-01 -1.331235021352767944e-01
-5.040373802185058594e-01 2.792838215827941895e-01 2.772376239299774170e-01
-2.305338829755783081e-01 8.186332881450653076e-02 7.360795140266418457e-01
2.219209820032119751e-01 -6.286197304725646973e-01 4.112735018134117126e-02
4.510159138590097427e-03 4.028863608837127686e-01 -6.412598490715026855e-01
2.922088801860809326e-01 5.657384991645812988e-01 -2.600858211517333984e-01
1.170285865664482117e-01 -5.254627466201782227e-01 4.865498542785644531e-01
1.453256886452436447e-02 -2.261503785848617554e-01 7.549363970756530762e-01
-4.871018826961517334e-01 1.121191605925559998e-01 -4.197062849998474121e-01
-2.837911844253540039e-01 -8.249679952859878540e-02 7.035869359970092773e-01
2.103268653154373169e-01 5.828273296356201172e-01 3.414967656135559082e-01
9.575735777616500854e-02 6.715611815452575684e-01 1.772035956382751465e-01
3.107178807258605957e-01 -5.683438181877136230e-01 9.808811545372009277e-02
3.637144565582275391e-01 -4.382522702217102051e-01 -3.400254845619201660e-01
-5.555058121681213379e-01 1.348552703857421875e-01 2.456447482109069824e-01
-3.139035403728485107e-01 3.790796697139739990e-01 -5.012686848640441895e-01
-4.078679978847503662e-01 -6.713625788688659668e-02 5.873530507087707520e-01
1.874529570341110229e-01 3.398425281047821045e-01 6.513902544975280762e-01
-4.013434648513793945e-01 -1.030847579240798950e-01 5.889815688133239746e-01
5.782752037048339844e-01 1.457728296518325806e-01 3.182423114776611328e-02
5.149629712104797363e-01 -1.072480455040931702e-01 -3.549389839172363281e-01
2.594437003135681152e-01 -2.995782196521759033e-01 -6.091629266738891602e-01
-5.851020216941833496e-01 9.843277931213378906e-02 -5.160859972238540649e-02
-3.818102777004241943e-01 4.914284646511077881e-01 2.281193286180496216e-01
5.346893668174743652e-01 7.313999533653259277e-02 -3.250767886638641357e-01
-5.828425288200378418e-01 1.238135769963264465e-01 5.124053359031677246e-02
-1.652457118034362793e-01 6.005269885063171387e-01 -3.199828267097473145e-01
5.885494351387023926e-01 3.942352533340454102e-02 1.030052360147237778e-02
3.259606361389160156e-01 3.215353786945343018e-01 -5.534211993217468262e-01
1.786561459302902222e-01 1.821801662445068359e-01 -7.228350043296813965e-01
-2.358986735343933105e-01 3.408560901880264282e-02 7.383776903152465820e-01
-4.037096500396728516e-01 -2.009130269289016724e-01 5.524413585662841797e-01
-2.326181977987289429e-01 -6.000934243202209473e-01 2.616705000400543213e-01
9.326601773500442505e-02 3.247744739055633545e-01 6.970504522323608398e-01
3.820858597755432129e-01 -2.386929839849472046e-01 5.307953357696533203e-01
4.638530313968658447e-01 4.307550787925720215e-01 1.053225994110107422e-01
2.614015638828277588e-01 -6.032004356384277344e-01 8.896782249212265015e-02
3.915019035339355469e-01 -4.946642518043518066e-01 9.726803004741668701e-02
2.073135673999786377e-01 2.182886451482772827e-01 -6.968684792518615723e-01
3.151681125164031982e-01 2.981621921062469482e-01 5.845627188682556152e-01
1.997906267642974854e-01 -6.355986595153808594e-01 -7.761034369468688965e-02
-3.230355381965637207e-01 5.777109265327453613e-01 -1.179173123091459274e-02
-5.467500090599060059e-01 -1.245050653815269470e-01 2.986958324909210205e-01
-5.077741742134094238e-01 3.506596982479095459e-01 5.719090625643730164e-02
-1.553706526756286621e-01 -5.425572395324707031e-01 -4.326783418655395508e-01
3.602828681468963623e-01 6.695443391799926758e-02 -6.200403571128845215e-01
2.693600058555603027e-01 5.524746179580688477e-01 -3.296942710876464844e-01
1.667695343494415283e-01 2.842812836170196533e-01 6.946628093719482422e-01
-2.699561119079589844e-01 4.243975281715393066e-01 5.211063623428344727e-01
3.472840785980224609e-01 -1.736556738615036011e-01 6.053587794303894043e-01
-4.913536608219146729e-01 -7.363051176071166992e-02 -4.252431094646453857e-01
-2.009633332490921021e-01 1.586003899574279785e-01 7.342765331268310547e-01
-3.621192276477813721e-01 4.641892015933990479e-01 -3.173615336418151855e-01
1.094971820712089539e-01 5.845234990119934082e-01 4.132254421710968018e-01
-5.035243630409240723e-01 2.069764137268066406e-01 -3.287722468376159668e-01
-5.356124639511108398e-01 4.165856540203094482e-02 3.554703295230865479e-01
-1.646254956722259521e-02 6.928877830505371094e-01 -6.018029898405075073e-02
1.954074800014495850e-01 4.866156578063964844e-01 -5.047489404678344727e-01
1.579690873622894287e-01 -6.404553055763244629e-01 1.754259467124938965e-01
1.850883662700653076e-01 -3.346953988075256348e-01 6.461415886878967285e-01
-4.587275683879852295e-01 4.161789119243621826e-01 -1.296517997980117798e-01
-3.328938186168670654e-01 -5.678170323371887207e-01 1.331018060445785522e-01
3.806696534156799316e-01 2.914079092442989349e-02 -6.007427573204040527e-01
-3.356131017208099365e-01 5.014346837997436523e-01 -2.959898114204406738e-01
-1.452202070504426956e-02 6.889285445213317871e-01 -1.023534834384918213e-01
4.196403026580810547e-01 -1.031000465154647827e-01 5.402700901031494141e-01
1.539636999368667603e-01 5.649284124374389648e-01 -4.168200492858886719e-01
-1.885215640068054199e-01 5.656555891036987305e-01 3.900684416294097900e-01
9.313783049583435059e-02 3.010442256927490234e-01 7.108315825462341309e-01
-4.985467493534088135e-01 3.697292804718017578e-01 2.823061868548393250e-02
-5.935661792755126953e-01 -4.918420314788818359e-02 2.572670951485633850e-02
-4.839776456356048584e-01 2.474225461483001709e-01 -3.431570529937744141e-01
-3.601484596729278564e-01 -5.458813905715942383e-01 -9.969625622034072876e-02
-4.633872807025909424e-01 4.207328855991363525e-01 9.947365522384643555e-02
5.815712809562683105e-01 -6.127914786338806152e-02 8.310835808515548706e-02
4.118474125862121582e-01 -3.794387876987457275e-01 3.430036306381225586e-01
-3.518083095550537109e-01 5.506741404533386230e-01 -6.165127456188201904e-02
-5.874428749084472656e-01 -2.576745674014091492e-02 -1.046140268445014954e-01
6.785710155963897705e-02 5.350231528282165527e-01 5.063953399658203125e-01
4.333913624286651611e-01 4.850278794765472412e-02 -5.324178338050842285e-01
1.617894694209098816e-02 5.231645107269287109e-01 5.295134782791137695e-01
-3.329878449440002441e-01 -5.769549608230590820e-01 1.312497537583112717e-03
3.368633389472961426e-01 -2.774868607521057129e-01 5.609833598136901855e-01
4.136482477188110352e-01 -2.750936448574066162e-01 -4.511883854866027832e-01
5.207378268241882324e-01 -2.549312114715576172e-01 -1.955475658178329468e-01
4.789556264877319336e-01 1.737561523914337158e-01 4.234405457973480225e-01
2.060576230287551880e-01 -6.369470357894897461e-01 1.620673388242721558e-02
1.149315293878316879e-02 -1.409158110618591309e-01 -7.658795118331909180e-01
-2.980951964855194092e-01 5.962508916854858398e-01 2.460918948054313660e-02
1.640429347753524780e-01 -5.587521791458129883e-01 4.011439979076385498e-01
-2.594544887542724609e-01 -6.210600733757019043e-01 -6.071899086236953735e-02
3.464989066123962402e-01 5.707542300224304199e-01 1.922890171408653259e-02
-3.620404303073883057e-01 4.560208618640899658e-01 -3.323052823543548584e-01
-1.670249551534652710e-01 -2.677389681339263916e-01 -6.848772168159484863e-01
1.534070819616317749e-01 2.224206328392028809e-01 7.286112904548645020e-01
2.440861016511917114e-01 -8.055962622165679932e-02 7.171288132667541504e-01
-3.035253882408142090e-01 3.272194862365722656e-01 5.790476799011230469e-01
-4.301845133304595947e-01 -1.411449909210205078e-01 5.403363108634948730e-01
-2.988590300083160400e-01 -4.856211841106414795e-01 4.192820489406585693e-01
-8.019483834505081177e-02 -5.815713405609130859e-01 -3.990732133388519287e-01
-4.513638317584991455e-01 4.175191819667816162e-01 -1.631807237863540649e-01
-3.809519112110137939e-01 3.894762396812438965e-01 -3.971061706542968750e-01
-7.586041837930679321e-02 -6.488316059112548828e-01 -2.338576018810272217e-01
4.659388065338134766e-01 1.314439475536346436e-01 4.657238423824310303e-01
2.302421331405639648e-01 -1.734787970781326294e-01 7.024123072624206543e-01
-2.892005443572998047e-01 2.401324659585952759e-01 6.463763117790222168e-01
4.859362840652465820e-01 -1.517938077449798584e-01 4.042324125766754150e-01
1.198530197143554688e-01 -6.225326657295227051e-01 2.897776365280151367e-01
-2.607738673686981201e-01 2.872917652130126953e-01 6.420633196830749512e-01
-4.830383658409118652e-01 -4.095386266708374023e-01 -2.298589795827865601e-02
-5.822197794914245605e-01 1.079511791467666626e-01 1.041413098573684692e-01
5.110149979591369629e-01 1.491162925958633423e-01 -3.625180423259735107e-01
1.380326598882675171e-01 -5.416597723960876465e-01 -4.336755275726318359e-01
-2.598384916782379150e-01 -3.972746729850769043e-01 -5.378459095954895020e-01
3.022330999374389648e-01 6.042510867118835449e-01 7.471331395208835602e-03
-1.749790459871292114e-01 -5.257523059844970703e-01 -4.467006921768188477e-01
4.566216766834259033e-01 -4.193695485591888428e-01 -1.698764786124229431e-02
1.369073688983917236e-01 -6.023456454277038574e-01 -3.129979670047760010e-01
-2.686846628785133362e-02 -1.750147491693496704e-01 -7.555618882179260254e-01
-4.916558861732482910e-01 -2.216620445251464844e-01 -3.569174408912658691e-01
5.376750826835632324e-01 3.435896337032318115e-02 3.218580186367034912e-01
-1.902965903282165527e-01 -8.134741336107254028e-02 -7.346600294113159180e-01
-5.287401080131530762e-01 -3.237904012203216553e-01 -1.582632586359977722e-02
3.552541136741638184e-01 -3.837497532367706299e-01 -4.323137700557708740e-01
-3.168816566467285156e-01 1.441087573766708374e-01 -6.379937529563903809e-01
6.306970119476318359e-02 1.321901232004165649e-01 7.805473208427429199e-01
1.770696640014648438e-01 -2.159851193428039551e-01 7.156038880348205566e-01
1.357292849570512772e-02 6.942329406738281250e-01 -5.021210014820098877e-02
-1.275114864110946655e-01 4.189672172069549561e-01 6.172259449958801270e-01
-2.285951524972915649e-01 7.942651957273483276e-02 -7.156037688255310059e-01
-2.274144440889358521e-03 2.757359743118286133e-01 -7.218690514564514160e-01
-3.996069729328155518e-01 3.974302411079406738e-01 3.763572871685028076e-01
2.133677899837493896e-01 -6.136092543601989746e-01 1.893358826637268066e-01
2.443263828754425049e-01 -2.839734852313995361e-01 6.412682533264160156e-01
-4.117512404918670654e-01 -5.049931406974792480e-01 1.661749184131622314e-02
2.612946331501007080e-01 5.203373432159423828e-01 4.044494032859802246e-01
-3.905398249626159668e-01 -3.364444375038146973e-01 -4.474893212318420410e-01
-5.317638516426086426e-01 -3.168381154537200928e-01 5.018742382526397705e-02
6.510196626186370850e-02 -6.796625852584838867e-01 4.539633914828300476e-02
1.451715826988220215e-01 5.779663324356079102e-01 -3.987467885017395020e-01
-4.327194392681121826e-01 -2.227906435728073120e-01 4.994510114192962646e-01
-4.753375425934791565e-02 -6.431810855865478516e-01 -2.621226906776428223e-01
-2.229245603084564209e-01 6.377178430557250977e-01 8.103650808334350586e-02
-1.850355267524719238e-01 4.396113753318786621e-01 5.697035789489746094e-01
4.140168130397796631e-01 -2.458371967077255249e-01 -4.734459817409515381e-01
1.616037935018539429e-01 -5.241258740425109863e-01 4.619064331054687500e-01
2.346665039658546448e-02 5.749051570892333984e-01 4.527078866958618164e-01
2.549480199813842773e-01 4.397412836551666260e-01 5.192240476608276367e-01
-4.662855267524719238e-01 2.324031293392181396e-01 -3.955218791961669922e-01
-4.926589131355285645e-01 -2.091035246849060059e-01 3.955208063125610352e-01
-1.052904799580574036e-01 -4.283066093921661377e-01 -5.934497714042663574e-01
-1.400645673274993896e-01 -6.467882990837097168e-01 -1.929388493299484253e-01
2.530249655246734619e-01 -2.496503144502639771e-01 -6.437250375747680664e-01
3.178642690181732178e-01 -4.621681272983551025e-01 -3.787434995174407959e-01
-2.619777917861938477e-01 -1.885506361722946167e-01 6.918048858642578125e-01
-3.395686447620391846e-01 5.438882708549499512e-01 -1.640854179859161377e-01
-1.392997205257415771e-01 -6.172001957893371582e-01 3.153098225593566895e-01
-4.797695577144622803e-02 4.066987633705139160e-01 6.477583646774291992e-01
4.090292453765869141e-01 -1.503369957208633423e-01 5.391221046447753906e-01
-1.550463587045669556e-01 -3.752834200859069824e-01 6.443340778350830078e-01
3.919875621795654297e-01 -2.298994958400726318e-01 -5.163511037826538086e-01
5.893338099122047424e-02 -4.544096887111663818e-01 5.938842892646789551e-01
-5.080894827842712402e-01 3.365372121334075928e-01 1.337123811244964600e-01
2.847063168883323669e-02 4.546671211719512939e-01 -5.948044061660766602e-01
-8.653187006711959839e-02 6.784335374832153320e-01 -1.156511977314949036e-01
-4.591008722782135010e-01 -1.295799762010574341e-01 4.994785785675048828e-01
3.008658587932586670e-01 -3.804392218589782715e-01 -5.048065185546875000e-01
-4.058477580547332764e-01 -1.378956064581871033e-02 5.939291119575500488e-01
-1.138945370912551880e-01 -6.177096962928771973e-01 3.301363587379455566e-01
2.087690234184265137e-01 -7.829998619854450226e-03 -7.346453070640563965e-01
5.989321321249008179e-02 3.502321988344192505e-02 -7.801742553710937500e-01
2.753334343433380127e-01 4.334260225296020508e-01 5.072344541549682617e-01
