-4.105356335639953613e-01 1.312612742185592651e-01 -4.476256966590881348e-01
-2.987460792064666748e-01 3.589978218078613281e-01 -4.270634949207305908e-01
1.347071230411529541e-01 -4.533077180385589600e-01 9.041152149438858032e-02
2.722522020339965820e-01 9.767326712608337402e-02 3.952668309211730957e-01
-5.446649193763732910e-01 3.783714175224304199e-01 2.235326468944549561e-01
-4.728125035762786865e-01 4.342159330844879150e-01 2.168062478303909302e-01
2.650355696678161621e-01 9.510989487171173096e-02 -4.209721386432647705e-01
6.088357567787170410e-01 -3.725747168064117432e-01 1.009290963411331177e-01
-5.888772010803222656e-01 3.390062749385833740e-01 1.847567856311798096e-01
2.225592434406280518e-01 -4.201164841651916504e-01 -2.777232527732849121e-01
5.285078287124633789e-01 -2.865275144577026367e-01 -2.961000502109527588e-01
-5.959826111793518066e-01 4.176566600799560547e-01 -9.846808761358261108e-02
-9.558626264333724976e-02 3.557005524635314941e-01 3.322952389717102051e-01
-1.638819724321365356e-01 2.415827065706253052e-01 4.908816516399383545e-01
6.096018478274345398e-02 1.736497282981872559e-01 4.826345145702362061e-01
-3.301615118980407715e-01 1.735629513859748840e-02 -4.610768854618072510e-01
-2.011548280715942383e-01 4.458815157413482666e-01 1.844230145215988159e-01
-5.352381467819213867e-01 3.897135332226753235e-02 -8.043522387742996216e-02
-2.215442657470703125e-01 1.824965178966522217e-01 5.186800360679626465e-01
7.732967287302017212e-02 -4.329687058925628662e-01 8.426128327846527100e-02
5.255120396614074707e-01 -4.697792828083038330e-01 -3.864709055051207542e-03
5.426529049873352051e-01 -3.238050639629364014e-01 2.912400960922241211e-01
3.486970961093902588e-01 -3.980153203010559082e-01 3.637636899948120117e-01
4.434756562113761902e-02 -2.916559278964996338e-01 -4.154942035675048828e-01
4.875901639461517334e-01 -1.690893918275833130e-01 3.594419658184051514e-01
6.098136901855468750e-01 -1.976924240589141846e-01 4.988586157560348511e-02
1.362033337354660034e-01 6.062807515263557434e-02 5.279196500778198242e-01
5.826205611228942871e-01 -2.311850637197494507e-01 2.167240679264068604e-01
-4.035352468490600586e-01 3.790694475173950195e-01 3.339415490627288818e-01
-1.519416719675064087e-01 4.551052749156951904e-01 6.538214534521102905e-02
-4.674645066261291504e-01 -2.388046309351921082e-02 -1.833582371473312378e-01
-1.381365954875946045e-01 4.534845650196075439e-01 3.463947027921676636e-02
-1.429633200168609619e-01 3.098858892917633057e-01 -4.619473814964294434e-01
2.361321151256561279e-01 -3.139160200953483582e-02 5.211780071258544922e-01
5.557983517646789551e-01 -1.495900601148605347e-01 -2.057428956031799316e-01
5.805183053016662598e-01 -1.336259394884109497e-01 8.410448580980300903e-02
-7.992875762283802032e-03 -3.683860898017883301e-01 2.350412905216217041e-01
-1.360255181789398193e-01 -1.837182492017745972e-01 4.454867541790008545e-01
4.546605646610260010e-01 -4.906098842620849609e-01 7.991629093885421753e-02
6.143457815051078796e-02 3.024408519268035889e-01 2.974373102188110352e-01
4.510121047496795654e-01 4.407419264316558838e-02 -1.483960002660751343e-01
4.974524676799774170e-02 -4.585316777229309082e-02 -5.772494673728942871e-01
-4.821828603744506836e-01 -1.891300268471240997e-02 -1.404787749052047729e-01
-2.956941127777099609e-01 4.939734637737274170e-01 -6.764309853315353394e-02
-2.058166265487670898e-02 -1.611464172601699829e-01 5.291656851768493652e-01
3.059174716472625732e-01 -1.609032750129699707e-01 -4.985962510108947754e-01
1.442287266254425049e-01 -1.466054096817970276e-02 5.548991560935974121e-01
6.130505725741386414e-02 -3.441716730594635010e-01 -3.415341377258300781e-01
4.227463603019714355e-01 -3.233251571655273438e-01 -3.757217228412628174e-01
-6.343426108360290527e-01 2.811805605888366699e-01 4.369849711656570435e-02
-5.737494826316833496e-01 1.722137928009033203e-01 -2.265346646308898926e-01
4.422438740730285645e-01 -1.764257103204727173e-01 4.143189787864685059e-01
1.961046364158391953e-03 -1.077501177787780762e-01 5.606601834297180176e-01
-1.443648785352706909e-01 4.122032523155212402e-01 -2.898961305618286133e-01
1.245720311999320984e-01 -3.916668593883514404e-01 -2.876381278038024902e-01
-2.193100005388259888e-01 -2.492448687553405762e-01 2.042146921157836914e-01
5.919575095176696777e-01 -4.129081666469573975e-01 -3.145838156342506409e-02
3.742550313472747803e-01 -4.733075201511383057e-01 -1.648600250482559204e-01
-3.297019302845001221e-01 2.762313783168792725e-01 4.468347132205963135e-01
4.731650054454803467e-01 -1.721935421228408813e-01 3.790583908557891846e-01
3.189827203750610352e-01 -3.451754748821258545e-01 4.282088875770568848e-01
-5.581480860710144043e-01 4.511556625366210938e-01 -1.086991950869560242e-01
2.645813524723052979e-01 -3.597095906734466553e-01 -3.867318630218505859e-01
1.498040556907653809e-01 -4.155367612838745117e-01 2.822774648666381836e-01
2.093428075313568115e-01 2.309336513280868530e-01 -2.730797529220581055e-01
-1.854912489652633667e-01 4.703212678432464600e-01 -5.121890921145677567e-03
-1.532451510429382324e-01 -1.732493937015533447e-02 -5.515764355659484863e-01
3.802801966667175293e-01 -4.756955206394195557e-01 1.994371563196182251e-01
1.171230152249336243e-01 -3.629751801490783691e-01 -3.420558869838714600e-01
-4.463217556476593018e-01 4.955437183380126953e-01 -8.488316088914871216e-02
-4.827262461185455322e-02 -2.589204311370849609e-01 4.212757647037506104e-01
5.430839657783508301e-01 -3.849984109401702881e-01 2.455046027898788452e-01
2.447910308837890625e-01 2.341544330120086670e-01 1.422682255506515503e-01
5.113469362258911133e-01 -4.578437507152557373e-01 1.546653807163238525e-01
-2.371305674314498901e-01 2.746895849704742432e-01 4.659889340400695801e-01
-2.534453272819519043e-01 -1.761376559734344482e-01 -3.151866495609283447e-01
-5.614868402481079102e-01 9.256957471370697021e-02 1.109190210700035095e-01
-5.505546331405639648e-01 1.345591098070144653e-01 2.202523499727249146e-01
-2.958960831165313721e-01 -5.825837701559066772e-02 4.266351759433746338e-01
-5.104541778564453125e-01 2.020194679498672485e-01 3.293080031871795654e-01
2.918327152729034424e-01 -2.002315223217010498e-01 5.119700431823730469e-01
5.861500501632690430e-01 -1.900128275156021118e-01 -1.557047367095947266e-01
-1.782173989340662956e-03 3.129388093948364258e-01 -3.796974122524261475e-01
-4.105208814144134521e-01 -1.311879139393568039e-02 -3.345805704593658447e-01
-5.055422186851501465e-01 -6.382384337484836578e-03 2.533867768943309784e-02
2.560353875160217285e-01 -1.373545527458190918e-01 5.317232608795166016e-01
2.840087413787841797e-01 -4.365633726119995117e-01 -2.589525580406188965e-01
-3.681168556213378906e-01 4.383437633514404297e-01 2.533012628555297852e-01
-2.946028113365173340e-01 -1.357053965330123901e-01 -3.271489143371582031e-01
1.652650088071823120e-01 -4.523186385631561279e-01 1.671591103076934814e-01
2.728245258331298828e-01 -4.341819286346435547e-01 3.006612956523895264e-01
1.409817188978195190e-01 -4.260262548923492432e-01 2.434026002883911133e-01
2.649012804031372070e-01 2.292097657918930054e-01 8.081647008657455444e-02
-3.672870993614196777e-01 4.011583924293518066e-01 -3.671351671218872070e-01
1.762235164642333984e-01 9.026399254798889160e-02 4.861978888511657715e-01
3.137835264205932617e-01 -7.302614301443099976e-02 -4.865753352642059326e-01
2.106222808361053467e-01 -4.783919751644134521e-01 2.291900664567947388e-02
-3.447400927543640137e-01 2.667537033557891846e-01 -4.832371175289154053e-01
-1.955910623073577881e-01 2.940815091133117676e-01 -4.872733652591705322e-01
-1.339946240186691284e-01 4.361339509487152100e-01 1.449672430753707886e-01
1.027045771479606628e-01 -4.443022012710571289e-01 -1.923507079482078552e-02
-3.560217618942260742e-01 -1.148353517055511475e-01 2.577455341815948486e-01
-3.184483349323272705e-01 1.096136793494224548e-01 4.897750318050384521e-01
3.451942205429077148e-01 -3.675398826599121094e-01 4.007072746753692627e-01
-4.212785139679908752e-02 1.758511811494827271e-01 5.189632177352905273e-01
-5.494625568389892578e-01 7.521350681781768799e-02 1.212510615587234497e-01
-5.103591084480285645e-01 2.169806063175201416e-01 -3.642674982547760010e-01
-2.739139795303344727e-01 4.118970930576324463e-01 -3.528684675693511963e-01
-1.813324633985757828e-03 -3.522541821002960205e-01 -2.636506259441375732e-01
-4.783368110656738281e-02 2.041207849979400635e-01 4.997677505016326904e-01
5.711329579353332520e-01 -1.496881097555160522e-01 1.696508377790451050e-01
-3.088019192218780518e-01 2.280817776918411255e-01 4.777570664882659912e-01
-3.229551613330841064e-01 4.416035115718841553e-01 -3.019275367259979248e-01
-4.503087699413299561e-01 2.264447696506977081e-02 -3.141181766986846924e-01
-1.033562496304512024e-01 1.341965794563293457e-01 -5.689253211021423340e-01
-1.449722647666931152e-01 -2.924620509147644043e-01 -2.099375426769256592e-01
6.235012412071228027e-01 -3.208378851413726807e-01 8.301258832216262817e-02
5.153791308403015137e-01 -4.042283073067665100e-02 -1.439601480960845947e-01
-2.822561860084533691e-01 -1.433521211147308350e-01 3.376629054546356201e-01
4.161145687103271484e-01 -4.564773291349411011e-02 -3.713886737823486328e-01
1.912235468626022339e-02 2.249716222286224365e-01 -4.827178418636322021e-01
5.031375885009765625e-01 -4.003904461860656738e-01 2.764551937580108643e-01
-2.809794843196868896e-01 -2.231965363025665283e-01 -8.501262217760086060e-02
-3.794961571693420410e-01 7.903937995433807373e-02 -4.534442722797393799e-01
-7.833779603242874146e-02 1.030106768012046814e-01 -5.759690999984741211e-01
-1.354541331529617310e-01 -3.015596270561218262e-01 -1.983411312103271484e-01
1.775676906108856201e-01 -2.724312841892242432e-01 4.955129325389862061e-01
1.641071885824203491e-01 -3.215905129909515381e-01 -4.215950965881347656e-01
8.399131707847118378e-03 3.947157859802246094e-01 -4.736917838454246521e-02
3.966421484947204590e-01 -4.990616440773010254e-01 5.714961513876914978e-02
5.788658857345581055e-01 -4.323289990425109863e-01 3.362604230642318726e-02
2.373250573873519897e-02 -2.193388063460588455e-03 -5.816823244094848633e-01
9.508421272039413452e-02 1.140493750572204590e-01 -5.314728617668151855e-01
4.563271105289459229e-01 -4.913747906684875488e-01 -2.184497565031051636e-02
-7.374117523431777954e-02 3.983539342880249023e-01 2.070465981960296631e-01
-2.286094874143600464e-01 2.634942233562469482e-01 -5.101165771484375000e-01
-2.069075554609298706e-01 8.866015821695327759e-02 5.400695800781250000e-01
4.293214082717895508e-01 -8.122820407152175903e-03 -3.123827874660491943e-01
-1.781433224678039551e-01 3.941686451435089111e-01 -3.529410362243652344e-01
-4.633423089981079102e-01 -5.207974836230278015e-02 8.145238459110260010e-02
-3.751665055751800537e-01 -1.434898972511291504e-01 8.552654087543487549e-02
-6.243049502372741699e-01 2.326602488756179810e-01 6.689720600843429565e-02
-4.843172132968902588e-01 6.549735367298126221e-02 2.882136106491088867e-01
-3.720568418502807617e-01 -3.494720906019210815e-02 3.583635985851287842e-01
-4.087353944778442383e-01 4.889778494834899902e-01 -1.553754806518554688e-01
-2.212450802326202393e-01 3.737940192222595215e-01 3.559856712818145752e-01
4.275277554988861084e-01 -3.399826586246490479e-01 -3.603163063526153564e-01
-3.449071943759918213e-01 4.114263951778411865e-01 3.049947917461395264e-01
3.169680833816528320e-01 3.773926571011543274e-02 -4.209214746952056885e-01
3.551749289035797119e-01 -3.646559417247772217e-01 -3.688034415245056152e-01
-6.318576335906982422e-01 3.183187842369079590e-01 5.914920568466186523e-02
-4.710211753845214844e-01 1.586862653493881226e-01 3.684043884277343750e-01
-6.314401030540466309e-01 3.010062575340270996e-01 -1.094592958688735962e-01
-4.921118915081024170e-01 7.942234724760055542e-02 -3.070212602615356445e-01
-6.005585938692092896e-02 3.744604289531707764e-01 2.613267898559570312e-01
1.642238944768905640e-01 1.046993955969810486e-01 4.823201000690460205e-01
-3.973860293626785278e-02 -1.935986280441284180e-01 4.974451363086700439e-01
-2.094766125082969666e-02 -3.885353505611419678e-01 9.370512515306472778e-02
-6.191840395331382751e-03 -2.277102917432785034e-01 4.830422401428222656e-01
-4.027791917324066162e-01 8.370961248874664307e-02 4.147946834564208984e-01
-4.489334821701049805e-01 2.820937037467956543e-01 -4.200841784477233887e-01
1.522844880819320679e-01 -4.318908751010894775e-01 2.355862557888031006e-01
3.041268289089202881e-01 1.880303323268890381e-01 1.384196132421493530e-01
-6.582325324416160583e-03 -3.957294821739196777e-01 -5.875483155250549316e-02
4.312129616737365723e-01 -2.455951869487762451e-01 -4.059647023677825928e-01
1.911978423595428467e-01 -4.731143414974212646e-01 2.672332338988780975e-04
1.477941274642944336e-01 2.590489387512207031e-01 -3.115397989749908447e-01
-1.644817646592855453e-03 -2.920801341533660889e-01 -3.864778578281402588e-01
-3.455350697040557861e-01 -1.484916545450687408e-03 4.222953319549560547e-01
-6.419537216424942017e-02 -2.080402672290802002e-01 4.705466628074645996e-01
-6.024954319000244141e-01 3.830467164516448975e-01 -1.560534238815307617e-01
-1.877890378236770630e-01 -1.465032845735549927e-01 -4.361636340618133545e-01
-3.062313497066497803e-01 1.885604560375213623e-01 4.912739098072052002e-01
2.418170720338821411e-01 -3.512614071369171143e-01 4.265727400779724121e-01
5.243222713470458984e-01 -3.778400123119354248e-01 2.777535915374755859e-01
5.928562879562377930e-01 -1.772524565458297729e-01 -1.094247624278068542e-01
1.777636110782623291e-01 -4.677173197269439697e-01 -3.510486707091331482e-02
3.621324300765991211e-01 -4.977225065231323242e-01 8.109559863805770874e-02
3.588997125625610352e-01 -1.032968536019325256e-01 -4.607102572917938232e-01
-1.753955334424972534e-01 -2.783907651901245117e-01 2.103221565485000610e-01
-4.819986820220947266e-01 5.244295299053192139e-02 -2.935500144958496094e-01
-2.887711524963378906e-01 -1.221604123711585999e-01 3.612189292907714844e-01
1.694483309984207153e-01 -4.601130187511444092e-01 1.269943565130233765e-01
-3.935563564300537109e-02 4.122726023197174072e-01 -1.152764856815338135e-01
-2.251315861940383911e-01 -7.313586026430130005e-02 4.771867096424102783e-01
4.352855384349822998e-01 -5.057273060083389282e-02 -3.481687009334564209e-01
-1.978494822978973389e-01 -1.489707734435796738e-03 -5.389313697814941406e-01
-2.822323441505432129e-01 1.515105250291526318e-04 -4.890139997005462646e-01
2.696572244167327881e-01 -2.874263226985931396e-01 4.814591407775878906e-01
-2.085554897785186768e-01 -2.715714834630489349e-02 5.150683522224426270e-01
-1.437569409608840942e-01 -1.299408227205276489e-01 -4.859296083450317383e-01
-5.769154056906700134e-02 3.832244575023651123e-01 -2.804806530475616455e-01
-4.169536828994750977e-01 3.780054152011871338e-01 -3.775408267974853516e-01
6.211836263537406921e-02 3.482298552989959717e-01 -1.972469240427017212e-01
-4.703216552734375000e-01 -4.268221557140350342e-02 8.900103718042373657e-02
-4.310762584209442139e-01 -8.895494043827056885e-02 -7.524742931127548218e-02
-1.234561204910278320e-01 4.507107138633728027e-01 -2.616016194224357605e-02
-3.244972974061965942e-02 -6.799389421939849854e-02 -5.666097998619079590e-01
-3.268437683582305908e-01 4.674798250198364258e-01 1.795987933874130249e-01
-3.957181870937347412e-01 4.911401867866516113e-01 8.836273849010467529e-02
-1.207329779863357544e-01 -2.055973708629608154e-01 -4.196546375751495361e-01
-1.140265315771102905e-01 -3.415859043598175049e-01 4.261536896228790283e-02
5.127000808715820312e-01 -1.818889379501342773e-02 -6.565785408020019531e-02
-2.665215432643890381e-01 -2.133425623178482056e-01 2.039648294448852539e-01
-5.118757858872413635e-02 -1.983801424503326416e-01 -4.748477935791015625e-01
-4.826657846570014954e-02 -3.783729374408721924e-01 1.159139350056648254e-02
-1.953704953193664551e-01 -2.627562582492828369e-01 2.171799093484878540e-01
6.376288086175918579e-02 9.737068787217140198e-03 5.688005089759826660e-01
2.142809480428695679e-01 2.656651139259338379e-01 -1.202814355492591858e-01
-3.163175284862518311e-01 3.905168175697326660e-01 3.393703103065490723e-01
6.144604086875915527e-01 -2.909438610076904297e-01 -1.096837520599365234e-01
1.732359230518341064e-01 2.342643141746520996e-01 2.976107597351074219e-01
3.166583180427551270e-01 1.147070229053497314e-01 -3.251796066761016846e-01
4.039248079061508179e-02 2.468152046203613281e-01 -4.449301064014434814e-01
3.056913241744041443e-02 1.720213145017623901e-01 -5.224177837371826172e-01
-4.384813606739044189e-01 -7.431157678365707397e-02 1.150415688753128052e-01
-3.970728814601898193e-01 -7.825704663991928101e-02 2.439534962177276611e-01
-3.491010144352912903e-02 3.905165791511535645e-01 -2.236148715019226074e-01
2.580718696117401123e-01 2.018978148698806763e-01 -2.485536634922027588e-01
-3.637683689594268799e-01 -1.031488329172134399e-01 -2.655909657478332520e-01
4.709908664226531982e-01 -1.396083384752273560e-01 3.672223091125488281e-01
-3.146872520446777344e-01 4.411079883575439453e-01 2.483016550540924072e-01
7.092342525720596313e-02 -3.129941225051879883e-01 4.241046011447906494e-01
-5.721383690834045410e-01 2.160007655620574951e-01 -2.630911767482757568e-01
-8.446771651506423950e-02 2.198537439107894897e-01 4.964245259761810303e-01
2.401507794857025146e-01 2.494608759880065918e-01 -9.785909950733184814e-02
1.450285017490386963e-01 7.583355158567428589e-02 5.146692991256713867e-01
1.366540342569351196e-01 7.709305733442306519e-02 -5.318980216979980469e-01
-2.263319641351699829e-01 2.938006520271301270e-01 -4.890504777431488037e-01
2.599907107651233673e-03 -1.952815949916839600e-01 -5.015844702720642090e-01
-4.990216195583343506e-01 -1.212114654481410980e-02 -6.499293446540832520e-02
5.267467498779296875e-01 -1.636929661035537720e-01 2.952190935611724854e-01
2.478047907352447510e-01 1.979253143072128296e-01 2.556221187114715576e-01
2.677608132362365723e-01 1.452630162239074707e-01 -3.511656224727630615e-01
5.858585834503173828e-01 -4.226079285144805908e-01 -1.821761578321456909e-02
-1.137291342020034790e-01 -2.030398249626159668e-01 -4.286617338657379150e-01
-1.235718429088592529e-01 3.967750817537307739e-02 -5.743541717529296875e-01
-5.335879325866699219e-02 -3.190116286277770996e-01 3.088954389095306396e-01
5.594334602355957031e-01 -1.413170248270034790e-01 1.964855641126632690e-01
1.618490517139434814e-01 -2.853566408157348633e-01 4.833734333515167236e-01
-2.825783491134643555e-01 3.758913576602935791e-01 -4.075579047203063965e-01
2.812391817569732666e-01 -1.345480978488922119e-01 -5.124640464782714844e-01
4.682434797286987305e-01 -2.181779891252517700e-01 3.944907486438751221e-01
-1.667750328779220581e-01 4.613074362277984619e-01 5.050649493932723999e-02
4.309760332107543945e-01 7.463771104812622070e-02 1.037572696805000305e-01
6.297253072261810303e-02 -4.040221273899078369e-01 2.209637165069580078e-01
-3.395866155624389648e-01 -1.511650234460830688e-01 2.028471082448959351e-01
3.826813399791717529e-01 7.974510639905929565e-02 -2.619069516658782959e-01
-1.049081459641456604e-01 -1.033832058310508728e-01 -5.269514322280883789e-01
-4.872821569442749023e-01 2.389678731560707092e-02 -2.359219789505004883e-01
-3.149822950363159180e-01 -1.597328782081604004e-01 2.426702082157135010e-01
4.528083205223083496e-01 5.890213325619697571e-02 -4.868905246257781982e-02
-5.238900333642959595e-02 -1.430762708187103271e-01 -5.215845108032226562e-01
-3.271663188934326172e-01 -5.340241640806198120e-02 -4.008736610412597656e-01
-7.659994810819625854e-02 4.032615423202514648e-01 1.939296573400497437e-01
-3.899080753326416016e-01 -1.345836967229843140e-01 1.517189852893352509e-02
1.656491160392761230e-01 4.276699200272560120e-02 -5.337523221969604492e-01
6.107964515686035156e-01 -2.832181155681610107e-01 -1.240802928805351257e-01
2.384767383337020874e-01 9.200629591941833496e-02 4.361084699630737305e-01
2.728392481803894043e-01 -1.624000370502471924e-01 5.242731571197509766e-01
1.944118365645408630e-02 2.320390790700912476e-01 4.449996948242187500e-01
-3.392246663570404053e-01 4.410932362079620361e-01 2.496979534626007080e-01
3.959105312824249268e-01 -3.125177025794982910e-01 -3.982756733894348145e-01
-5.420147776603698730e-01 1.068374589085578918e-01 -2.306550592184066772e-01
3.999089896678924561e-01 -4.855344593524932861e-01 -1.116145476698875427e-01
1.403170824050903320e-01 -4.457457661628723145e-01 -1.220051869750022888e-01
-3.413752317428588867e-01 -4.558866098523139954e-02 -3.925851583480834961e-01
-3.858813941478729248e-01 -1.031646281480789185e-01 -2.113357633352279663e-01
-3.594524860382080078e-01 4.892456345260143280e-03 4.121706783771514893e-01
4.335630536079406738e-01 7.652920670807361603e-03 2.773941457271575928e-01
-3.507016301155090332e-01 4.826943874359130859e-01 -1.866435557603836060e-01
-4.207037761807441711e-02 -3.027526661753654480e-02 -5.760192871093750000e-01
2.719480991363525391e-01 -8.609763532876968384e-02 -5.151401162147521973e-01
4.068214893341064453e-01 -4.923384189605712891e-01 1.171129867434501648e-01
1.133961528539657593e-01 -2.761269509792327881e-01 4.818980097770690918e-01
-1.086712442338466644e-02 6.331247836351394653e-02 -5.794171690940856934e-01
-7.155480235815048218e-02 2.189123779535293579e-01 4.941546022891998291e-01
-2.729023993015289307e-01 4.909772574901580811e-01 -4.768501594662666321e-02
2.490713298320770264e-01 -1.086977645754814148e-01 -5.274908542633056641e-01
4.072201251983642578e-01 1.085538193583488464e-01 2.657492458820343018e-02
-3.443688452243804932e-01 -6.436692923307418823e-02 -3.651911616325378418e-01
4.616858065128326416e-01 -4.452018141746520996e-01 2.408014386892318726e-01
5.820403695106506348e-01 -1.384956836700439453e-01 -7.899906486272811890e-02
1.347181648015975952e-01 1.260989345610141754e-02 -5.571665763854980469e-01
3.138688802719116211e-01 5.572241172194480896e-02 3.968532383441925049e-01
-1.059532612562179565e-01 3.926895260810852051e-01 2.587830424308776855e-01
2.391270101070404053e-01 -1.760180667042732239e-02 5.138198137283325195e-01
3.755815923213958740e-01 4.847843572497367859e-02 -3.294441401958465576e-01
-5.699163079261779785e-01 1.774884611368179321e-01 -2.414751797914505005e-01
4.654618799686431885e-01 -4.875807166099548340e-01 8.633000403642654419e-02
-1.963353455066680908e-01 -9.485689550638198853e-02 4.823025763034820557e-01
-5.440705418586730957e-01 2.066624015569686890e-01 -3.118982315063476562e-01
5.202950239181518555e-01 -2.361407279968261719e-01 3.340466320514678955e-01
1.028634756803512573e-01 4.217734560370445251e-02 -5.600658655166625977e-01
3.738711774349212646e-01 1.295213773846626282e-02 -3.750079274177551270e-01
2.697674334049224854e-01 1.850328892469406128e-01 2.441038489341735840e-01
-2.131450027227401733e-01 1.999392174184322357e-02 5.294148921966552734e-01
2.340526729822158813e-01 2.575561404228210449e-01 2.060198970139026642e-02
7.757170498371124268e-02 2.588747143745422363e-01 -3.972103297710418701e-01
4.358171299099922180e-02 -1.052973121404647827e-01 5.667586326599121094e-01
-4.929181039333343506e-01 4.400178492069244385e-01 -2.437883019447326660e-01
-4.998906552791595459e-01 3.279165923595428467e-01 -3.584594130516052246e-01
-7.922592759132385254e-02 -3.558844625949859619e-01 1.133311316370964050e-01
-3.829614222049713135e-01 -2.965188585221767426e-02 3.486973941326141357e-01
3.512932658195495605e-01 -4.938825070858001709e-01 1.129668354988098145e-01
-4.761596918106079102e-01 1.895919255912303925e-02 -2.547770440578460693e-01
2.284561842679977417e-02 -4.027394652366638184e-01 -1.114832758903503418e-01
-1.771284937858581543e-01 2.679100930690765381e-01 -5.064713358879089355e-01
2.871780991554260254e-01 3.744412213563919067e-02 -4.514527916908264160e-01
-2.318841069936752319e-01 4.290282130241394043e-01 2.531153857707977295e-01
3.503306768834590912e-03 3.166090846061706543e-01 -3.682568371295928955e-01
-4.236723184585571289e-01 4.993523061275482178e-01 -6.845877319574356079e-02
-3.558943271636962891e-01 -1.047474816441535950e-01 2.793237268924713135e-01
2.167584374547004700e-02 -3.092231154441833496e-01 -3.752801716327667236e-01
-4.779069423675537109e-01 4.242441952228546143e-01 2.304859757423400879e-01
-2.396368980407714844e-01 -1.672126352787017822e-01 -3.513654470443725586e-01
-4.084942117333412170e-02 -3.742749691009521484e-01 -9.935382008552551270e-02
2.098805606365203857e-01 -4.051637649536132812e-01 -3.046975433826446533e-01
-3.287388086318969727e-01 4.961640536785125732e-01 -9.423615038394927979e-02
-4.201454818248748779e-01 4.588799774646759033e-01 -2.503590583801269531e-01
3.790085315704345703e-01 -3.092728853225708008e-01 4.356902241706848145e-01
-1.206750273704528809e-01 -2.869481742382049561e-01 -2.703796327114105225e-01
5.816293954849243164e-01 -1.660552024841308594e-01 1.557781249284744263e-01
1.590216755867004395e-01 -4.269423484802246094e-01 -2.207161188125610352e-01
1.134828757494688034e-02 -1.895028501749038696e-01 5.213700532913208008e-01
4.728606343269348145e-01 -7.566437125205993652e-02 3.143767416477203369e-01
9.616666473448276520e-03 -3.959709107875823975e-01 1.495542526245117188e-01
-3.353157043457031250e-01 2.061448097229003906e-01 4.741283655166625977e-01
-2.016345411539077759e-01 -1.309662163257598877e-01 4.463619887828826904e-01
-1.806571483612060547e-01 -2.095182985067367554e-01 3.659880757331848145e-01
-9.881427884101867676e-02 -2.243204265832901001e-01 4.270251393318176270e-01
-3.756277263164520264e-01 1.415819227695465088e-01 -4.791241884231567383e-01
-3.517009690403938293e-02 -3.819361925125122070e-01 -5.683350190520286560e-02
-1.748643517494201660e-01 4.622866511344909668e-01 6.418263167142868042e-02
5.805633664131164551e-01 -3.752812445163726807e-01 1.884128600358963013e-01
-4.102472960948944092e-01 3.563935458660125732e-01 3.547879159450531006e-01
-4.754633605480194092e-01 -3.475653007626533508e-02 9.876856207847595215e-02
2.872730791568756104e-01 -4.682405292987823486e-01 -1.693656891584396362e-01
-3.610044419765472412e-01 3.314876556396484375e-01 -4.399810731410980225e-01
-1.778336986899375916e-02 2.166791856288909912e-01 -5.077947974205017090e-01
5.279943346977233887e-01 -4.642746150493621826e-01 -4.513051733374595642e-02
-6.298860311508178711e-01 3.186571300029754639e-01 -1.142850294709205627e-01
4.483568966388702393e-01 -8.337183296680450439e-02 3.600781261920928955e-01
-6.086892485618591309e-01 3.876395821571350098e-01 -1.266205459833145142e-01
2.339957505464553833e-01 1.381229758262634277e-01 3.857828974723815918e-01
-4.633767902851104736e-02 -3.786181211471557617e-01 5.098403245210647583e-02
1.393877565860748291e-01 -2.009739577770233154e-01 -5.229327082633972168e-01
-1.260253489017486572e-01 3.457702398300170898e-01 3.665787577629089355e-01
-2.567125856876373291e-01 -2.471943646669387817e-01 -8.197763934731483459e-03
6.109235882759094238e-01 -3.780442476272583008e-01 -3.914868831634521484e-02
-5.555659532546997070e-01 2.598763704299926758e-01 2.682734727859497070e-01
3.883914947509765625e-01 -6.648103892803192139e-02 4.212908446788787842e-01
-4.283020496368408203e-01 -3.052106872200965881e-02 2.665773332118988037e-01
-1.966144442558288574e-01 4.728959202766418457e-01 9.219817817211151123e-03
3.030163645744323730e-01 -3.280794918537139893e-01 -4.178265631198883057e-01
4.894441366195678711e-01 9.058675495907664299e-04 1.251480132341384888e-01
-2.265973985195159912e-01 4.692672193050384521e-01 1.092194691300392151e-01
-1.624772101640701294e-01 -3.109887838363647461e-01 -3.805615007877349854e-02
1.006912514567375183e-01 -4.435394406318664551e-01 5.813472345471382141e-02
-1.845698952674865723e-01 -2.696688473224639893e-01 2.192235440015792847e-01
7.643252611160278320e-02 2.227026820182800293e-01 -4.481068253517150879e-01
4.951181262731552124e-02 -3.392370045185089111e-01 3.697214424610137939e-01
5.498263835906982422e-01 -3.922737538814544678e-01 2.266843467950820923e-01
5.439791679382324219e-01 -1.081490144133567810e-01 -1.852058023214340210e-01
1.465042531490325928e-01 2.837055623531341553e-01 2.134322226047515869e-01
-2.932611107826232910e-01 -1.102014854550361633e-01 3.718734979629516602e-01
5.980154275894165039e-01 -3.273382484912872314e-01 1.834265291690826416e-01
6.258667111396789551e-01 -2.593345046043395996e-01 1.506956107914447784e-02
1.528381649404764175e-02 -3.582883179187774658e-01 2.972500920295715332e-01
5.346350669860839844e-01 -5.771932378411293030e-02 -1.020078510046005249e-01
2.901433035731315613e-03 3.485784828662872314e-01 -2.989782989025115967e-01
5.595879554748535156e-01 -3.695186674594879150e-01 -2.009474188089370728e-01
-1.353415548801422119e-01 -6.723425537347793579e-02 5.340669751167297363e-01
2.566016018390655518e-01 -4.846078157424926758e-01 9.782312065362930298e-02
3.682354688644409180e-01 -4.215380549430847168e-01 -2.869834899902343750e-01
-2.408779561519622803e-01 3.239599168300628662e-01 -4.632999598979949951e-01
-8.713559806346893311e-02 -1.041084527969360352e-01 5.366216301918029785e-01
-3.058217465877532959e-02 4.124850034713745117e-01 1.328892074525356293e-02
-1.917122006416320801e-01 -1.585346460342407227e-01 4.253546595573425293e-01
-5.030910372734069824e-01 3.632000461220741272e-02 2.021301537752151489e-01
-2.278921157121658325e-01 1.849911510944366455e-01 -5.439102053642272949e-01
4.013921916484832764e-01 -2.947492301464080811e-01 4.318763911724090576e-01
5.571150779724121094e-01 -8.093182742595672607e-02 -4.324070643633604050e-03
1.560100167989730835e-01 -3.427523970603942871e-01 4.201802313327789307e-01
-3.478745520114898682e-01 3.544786572456359863e-01 -4.241889119148254395e-01
-3.483878672122955322e-01 -2.471142075955867767e-02 -4.068883657455444336e-01
2.362382262945175171e-01 2.493212521076202393e-01 -1.222553774714469910e-01
-4.368379414081573486e-01 4.807085692882537842e-01 1.189157515764236450e-01
3.554034233093261719e-01 -4.530600011348724365e-01 2.656534016132354736e-01
-4.955802857875823975e-01 2.327081263065338135e-01 -3.838565051555633545e-01
-1.878210455179214478e-01 9.933848679065704346e-02 5.450254678726196289e-01
-4.318443834781646729e-01 -9.240619093179702759e-02 -1.853395625948905945e-02
2.438629716634750366e-01 1.488598287105560303e-01 3.582055866718292236e-01
1.066641602665185928e-02 3.560674488544464111e-01 -2.671913504600524902e-01
4.132776856422424316e-01 8.802236616611480713e-02 -1.431484222412109375e-01
-5.299406051635742188e-01 2.801820635795593262e-02 4.103793203830718994e-02
-2.515842393040657043e-02 -1.081891283392906189e-01 -5.510762333869934082e-01
-2.318554818630218506e-01 -2.216603457927703857e-01 2.609596252441406250e-01
4.462163522839546204e-02 3.361589014530181885e-01 2.332011759281158447e-01
6.225630044937133789e-01 -3.118698596954345703e-01 9.379949420690536499e-02
1.204282976686954498e-03 -3.456479907035827637e-01 -2.842016220092773438e-01
5.461632013320922852e-01 -1.926193982362747192e-01 -2.603713870048522949e-01
3.794372379779815674e-01 -4.700873792171478271e-01 2.175457328557968140e-01
5.381234884262084961e-01 -3.612276315689086914e-01 -2.413948178291320801e-01
-5.133020281791687012e-01 4.124082326889038086e-01 2.171485424041748047e-01
3.837228417396545410e-01 -3.665493130683898926e-01 3.899140655994415283e-01
8.636221289634704590e-02 -4.389172792434692383e-01 2.502746414393186569e-03
-4.188718795776367188e-01 7.149720937013626099e-02 3.904171586036682129e-01
-7.908788323402404785e-02 -3.749811276793479919e-02 5.633264780044555664e-01
3.784091770648956299e-01 -3.877035677433013916e-01 -3.343294560909271240e-01
-5.593541860580444336e-01 4.578351378440856934e-01 -5.052258819341659546e-02
1.890010386705398560e-01 -3.136509358882904053e-01 -4.350753724575042725e-01
3.601775467395782471e-01 -4.988740384578704834e-01 -1.899062655866146088e-02
-2.690091729164123535e-01 8.071610331535339355e-02 5.137777328491210938e-01
-3.129146695137023926e-01 4.794818460941314697e-01 1.305543631315231323e-01
-5.286306142807006836e-01 1.570891290903091431e-01 2.843491137027740479e-01
4.233619868755340576e-01 8.999253064393997192e-02 -6.480611115694046021e-02
-6.300688385963439941e-01 3.631432056427001953e-01 -4.188349843025207520e-02
-5.354602932929992676e-01 2.752539813518524170e-01 -3.347740173339843750e-01
-1.961008831858634949e-02 -3.567770123481750488e-01 -2.256770133972167969e-01
-3.269675076007843018e-01 5.478849634528160095e-02 4.703972339630126953e-01
5.498956441879272461e-01 -2.925050556659698486e-01 2.900162041187286377e-01
4.280688762664794922e-01 -3.735596239566802979e-01 3.624883294105529785e-01
1.256648302078247070e-01 -4.519260227680206299e-01 6.754183769226074219e-02
-5.857026576995849609e-01 2.422018498182296753e-01 2.088672071695327759e-01
5.046908855438232422e-01 -8.148758113384246826e-02 -2.530489265918731689e-01
4.618726968765258789e-01 -1.456678956747055054e-01 -3.708692491054534912e-01
8.508855849504470825e-02 7.016295939683914185e-02 -5.566329956054687500e-01
-5.491653084754943848e-01 4.231616556644439697e-01 -2.060903906822204590e-01
-4.559527039527893066e-01 -5.685367062687873840e-02 -1.084604263305664062e-01
5.973081588745117188e-01 -1.713850796222686768e-01 -6.733186542987823486e-02
4.829525947570800781e-01 5.872080102562904358e-03 1.378686130046844482e-01
-1.577504575252532959e-01 -2.870051562786102295e-01 -2.008954882621765137e-01
-5.392369627952575684e-01 3.919905722141265869e-01 2.149082720279693604e-01
-3.879531100392341614e-02 -1.631891578435897827e-01 -5.119154453277587891e-01
2.529327273368835449e-01 -4.779376387596130371e-01 1.429323107004165649e-01
3.416065126657485962e-02 -4.084909260272979736e-01 -1.061922907829284668e-01
2.575084567070007324e-01 4.192679002881050110e-02 -4.742436408996582031e-01
5.750351548194885254e-01 -1.129875555634498596e-01 -1.094781560823321342e-03
1.977675706148147583e-01 -4.464609026908874512e-01 2.288617342710494995e-01
-3.530462980270385742e-01 2.015398442745208740e-01 -4.963192343711853027e-01
-6.238593254238367081e-03 3.403986096382141113e-01 -3.294721841812133789e-01
5.668769478797912598e-01 -9.798490256071090698e-02 1.336094550788402557e-02
2.469094395637512207e-01 1.366780996322631836e-01 -3.916950523853302002e-01
8.038568496704101562e-02 3.080002665519714355e-01 -2.957243919372558594e-01
-7.271827012300491333e-02 3.322573751211166382e-02 -5.813080668449401855e-01
-3.590391874313354492e-01 1.779741942882537842e-01 -4.940515756607055664e-01
-1.184071227908134460e-01 -3.028074502944946289e-01 2.514225542545318604e-01
5.376840829849243164e-01 -4.560407698154449463e-01 -6.105902791023254395e-02
4.695649445056915283e-01 -4.788053929805755615e-01 -8.918780088424682617e-02
3.411497473716735840e-01 1.073351576924324036e-01 2.788675129413604736e-01
-6.136377453804016113e-01 3.901030123233795166e-01 4.664971679449081421e-02
1.047887932509183884e-02 3.664890527725219727e-01 1.890747249126434326e-01
2.116621732711791992e-01 4.180751740932464600e-03 -5.251109004020690918e-01
-2.423874102532863617e-04 -2.868813276290893555e-01 4.173183143138885498e-01
8.053501695394515991e-02 -1.568194925785064697e-01 -5.437006950378417969e-01
-9.919275529682636261e-03 1.285205036401748657e-01 5.400090217590332031e-01
-1.379085779190063477e-01 -2.027672380208969116e-01 4.209334552288055420e-01
8.286581933498382568e-02 -1.232373937964439392e-01 5.640585422515869141e-01
5.466226115822792053e-02 -3.680118024349212646e-01 3.155829906463623047e-01
2.112933099269866943e-01 2.519080340862274170e-01 1.712756156921386719e-01
-7.856858521699905396e-02 -2.652807831764221191e-01 -3.667171597480773926e-01
6.095170974731445312e-01 -1.932771950960159302e-01 -8.596017956733703613e-03
4.146499335765838623e-01 1.007421538233757019e-01 -4.437657818198204041e-02
-3.198181390762329102e-01 -1.658750623464584351e-01 2.128130644559860229e-01
-4.697133228182792664e-02 2.979554533958435059e-01 3.977170586585998535e-01
6.346389651298522949e-02 -4.281901717185974121e-01 -3.720244392752647400e-02
-4.547682404518127441e-02 4.198438525199890137e-01 -1.370840333402156830e-02
-2.931014448404312134e-02 1.017785146832466125e-01 5.553342700004577637e-01
-4.330131411552429199e-01 3.607182949781417847e-02 3.444287478923797607e-01
1.634945273399353027e-01 2.990972399711608887e-01 9.494605660438537598e-02
-5.775814056396484375e-01 2.419500946998596191e-01 -2.623217403888702393e-01
1.612458676099777222e-01 2.995786070823669434e-01 -1.376151293516159058e-01
3.325379192829132080e-01 -3.834080398082733154e-01 3.852422237396240234e-01
1.512752920389175415e-01 2.967067062854766846e-01 1.520224809646606445e-01
-2.883290946483612061e-01 -1.437338143587112427e-01 3.276168704032897949e-01
1.528717726469039917e-01 1.509578227996826172e-01 -4.674469828605651855e-01
-2.401249259710311890e-01 -1.539431512355804443e-01 3.787381350994110107e-01
-4.016871750354766846e-01 4.583592712879180908e-01 -2.577409744262695312e-01
-1.998846232891082764e-01 -2.654707431793212891e-01 1.952749788761138916e-01
-2.261922061443328857e-01 -2.042283862829208374e-01 3.119293153285980225e-01
5.789430066943168640e-02 3.452236652374267578e-01 1.779805272817611694e-01
-5.747261643409729004e-01 1.292164474725723267e-01 -1.612436771392822266e-01
-1.940473616123199463e-01 2.306416183710098267e-01 -5.302702784538269043e-01
3.772783875465393066e-01 -4.311946332454681396e-01 -2.674922943115234375e-01
-1.957562267780303955e-01 2.998149488121271133e-03 5.328751206398010254e-01
2.335269302129745483e-01 -4.815752506256103516e-01 7.914384454488754272e-02
-4.094300046563148499e-02 -3.777602910995483398e-01 1.007434800267219543e-01
5.047075152397155762e-01 -4.729128628969192505e-02 2.007383853197097778e-01
1.837999969720840454e-01 2.446628510951995850e-01 -2.859020829200744629e-01
5.933385714888572693e-02 2.798655629158020020e-01 3.455288708209991455e-01
-5.697040557861328125e-01 2.686857581138610840e-01 -2.822816669940948486e-01
-1.475446671247482300e-01 -3.055103719234466553e-01 1.730639487504959106e-01
-4.487988054752349854e-01 1.682644337415695190e-01 -4.224306643009185791e-01
-4.180735051631927490e-01 2.459434568881988525e-01 4.160577058792114258e-01
3.017905950546264648e-01 -4.529378190636634827e-02 4.858322441577911377e-01
4.055570662021636963e-01 -3.083488941192626953e-01 4.227962493896484375e-01
-4.384760260581970215e-01 2.099781930446624756e-01 -4.382786750793457031e-01
1.190993562340736389e-01 2.804410457611083984e-01 -3.054852485656738281e-01
2.391124218702316284e-01 -2.597716450691223145e-01 5.023471713066101074e-01
-5.907254815101623535e-01 1.480834335088729858e-01 1.017281934618949890e-01
-3.532225489616394043e-01 -7.310771942138671875e-02 -3.396053016185760498e-01
-2.209367901086807251e-01 -2.613569498062133789e-01 -1.274283975362777710e-01
-3.240183889865875244e-01 1.628193259239196777e-01 -5.131643414497375488e-01
4.793103933334350586e-01 2.411887049674987793e-02 -7.784875482320785522e-02
-1.539099961519241333e-01 4.600636959075927734e-01 -6.668801605701446533e-02
-3.125566244125366211e-01 1.354414131492376328e-02 -4.736758172512054443e-01
-3.700686097145080566e-01 1.554380655288696289e-01 4.599095582962036133e-01
2.115095257759094238e-01 -3.833716511726379395e-01 3.783758580684661865e-01
-7.540037482976913452e-02 -1.872236654162406921e-02 -5.733176469802856445e-01
-7.886710017919540405e-02 -3.583262562751770020e-01 9.271910786628723145e-02
-4.206552505493164062e-01 2.365501597523689270e-02 3.507692813873291016e-01
3.323089182376861572e-01 -4.908656775951385498e-01 1.268855035305023193e-01
3.743880987167358398e-01 -3.613322973251342773e-01 3.983233571052551270e-01
-1.655006557703018188e-01 4.646649956703186035e-01 -3.251960128545761108e-02
-3.861203789710998535e-01 -1.362631469964981079e-01 5.440903827548027039e-02
-4.058749079704284668e-01 4.918124377727508545e-01 -1.415737718343734741e-01
1.859957426786422729e-01 -4.183526933193206787e-01 3.003316819667816162e-01
6.278193593025207520e-01 -3.197842538356781006e-01 -4.198460839688777924e-03
-2.146951854228973389e-01 -1.742127239704132080e-01 -3.712484240531921387e-01
-3.358847796916961670e-01 -1.593512594699859619e-01 -1.801943182945251465e-01
-4.568755924701690674e-01 4.943019449710845947e-01 1.981168612837791443e-02
4.423378407955169678e-01 -7.129796594381332397e-02 3.584658801555633545e-01
-6.715222448110580444e-02 -3.112039864063262939e-01 3.093312978744506836e-01
-4.789900779724121094e-01 -2.744172327220439911e-02 1.132232397794723511e-01
-3.142432868480682373e-01 -1.867423355579376221e-01 1.526833772659301758e-01
-5.572567582130432129e-01 4.524506926536560059e-01 4.857170209288597107e-02
-1.053177267313003540e-01 3.878790438175201416e-01 2.703807055950164795e-01
-4.772257059812545776e-02 -2.594290077686309814e-01 -4.023136496543884277e-01
4.709071815013885498e-01 -1.077098771929740906e-01 3.465287387371063232e-01
3.264927864074707031e-01 9.049016982316970825e-02 3.339415490627288818e-01
5.845151543617248535e-01 -1.820317655801773071e-01 1.680520772933959961e-01
2.287322878837585449e-01 -4.203821122646331787e-01 3.164989948272705078e-01
-1.150995269417762756e-01 4.383525550365447998e-01 9.743776172399520874e-02
-1.479153148829936981e-02 -9.732875227928161621e-02 -5.583788156509399414e-01
-7.479786872863769531e-02 3.824493587017059326e-01 -3.017213642597198486e-01
4.145344793796539307e-01 -3.460776805877685547e-01 -3.626951277256011963e-01
1.819939315319061279e-01 -4.267722368240356445e-01 -2.391716241836547852e-01
-3.404269814491271973e-01 -1.671195924282073975e-01 -1.296306997537612915e-01
7.659629732370376587e-02 -1.867308169603347778e-01 -5.263899564743041992e-01
4.675550758838653564e-01 -2.322481572628021240e-02 2.546664476394653320e-01
4.936287403106689453e-01 -4.129447937011718750e-01 2.691334784030914307e-01
5.662404000759124756e-04 3.595584034919738770e-01 -2.717487812042236328e-01
-3.720486760139465332e-01 2.980030179023742676e-01 4.175641238689422607e-01
-3.246135115623474121e-01 -5.744324997067451477e-02 3.955484330654144287e-01
-4.410632252693176270e-01 3.081716001033782959e-01 -4.152690768241882324e-01
-7.257530838251113892e-02 2.883961796760559082e-01 4.235330522060394287e-01
3.276402950286865234e-01 7.141381502151489258e-02 -3.718559145927429199e-01
3.338264822959899902e-01 -2.089994400739669800e-01 4.926112592220306396e-01
-2.698526084423065186e-01 -2.374113500118255615e-01 1.022906415164470673e-02
3.668154478073120117e-01 -3.516152203083038330e-01 4.098111391067504883e-01
-5.395624637603759766e-01 4.336559772491455078e-01 -2.005195617675781250e-01
6.091934815049171448e-02 8.521775156259536743e-02 -5.587929487228393555e-01
2.261204719543457031e-01 2.029505223035812378e-01 2.830934822559356689e-01
4.677204787731170654e-01 -2.952744960784912109e-01 -3.586920201778411865e-01
4.508913159370422363e-01 -4.791780114173889160e-01 -1.078818738460540771e-01
2.318242788314819336e-01 1.849560588598251343e-01 -3.357257843017578125e-01
2.061958611011505127e-02 2.705072164535522461e-01 3.939042389392852783e-01
-5.451710224151611328e-01 2.241242229938507080e-01 -3.160772621631622314e-01
-4.856760799884796143e-02 2.862246632575988770e-01 4.148133099079132080e-01
-6.032208204269409180e-01 1.585974842309951782e-01 4.386822506785392761e-02
3.883397281169891357e-01 1.248003840446472168e-01 -7.551242411136627197e-02
-3.183126747608184814e-01 4.882448911666870117e-01 8.867181837558746338e-02
-3.617548346519470215e-01 8.162129670381546021e-02 -4.702445864677429199e-01
-4.752418696880340576e-01 -1.796280406415462494e-02 -1.727678924798965454e-01
-6.296495199203491211e-01 3.593148291110992432e-01 1.742527820169925690e-02
2.304463088512420654e-02 -2.718077301979064941e-01 4.510025084018707275e-01
1.510108169168233871e-02 1.820911169052124023e-01 -5.215721726417541504e-01
-1.276299506425857544e-01 -3.059704303741455078e-01 2.222738713026046753e-01
1.938381642103195190e-01 -4.354769885540008545e-01 2.605059742927551270e-01
4.468551874160766602e-01 -3.840125203132629395e-01 3.407215774059295654e-01
-5.636193156242370605e-01 4.553627371788024902e-01 -1.794856600463390350e-02
-5.788944959640502930e-01 1.176175922155380249e-01 8.726489543914794922e-02
1.477256417274475098e-01 -3.971771895885467529e-01 3.246803581714630127e-01
4.842444360256195068e-01 -8.377394080162048340e-02 3.025740385055541992e-01
-1.134484186768531799e-01 -3.396950066089630127e-01 8.040583878755569458e-02
-2.584891766309738159e-02 -3.872258365154266357e-01 -4.898984730243682861e-02
4.274652600288391113e-01 7.097013294696807861e-02 -1.494445353746414185e-01
3.834519684314727783e-01 -4.195246100425720215e-01 3.244419097900390625e-01
9.629204869270324707e-02 -2.004284858703613281e-01 5.340356230735778809e-01
-4.985781311988830566e-01 2.635420560836791992e-01 -3.797415792942047119e-01
3.997116088867187500e-01 1.164301782846450806e-01 -3.569889441132545471e-02
-2.971070632338523865e-02 -3.716615736484527588e-01 -1.477081328630447388e-01
1.405735164880752563e-01 -4.385754466056823730e-01 1.960819661617279053e-01
-1.001881286501884460e-01 4.268917441368103027e-01 -1.829091757535934448e-01
-3.562988936901092529e-01 -2.766647934913635254e-02 -3.942108154296875000e-01
-4.857839941978454590e-01 5.210124328732490540e-02 2.694019675254821777e-01
5.831578746438026428e-02 -3.946024179458618164e-01 -2.141210138797760010e-01
4.559064656496047974e-02 -2.035522758960723877e-01 5.219805836677551270e-01
-1.112487688660621643e-01 7.085257768630981445e-02 -5.777654647827148438e-01
-3.052873313426971436e-01 -4.487797990441322327e-02 -4.337453842163085938e-01
-4.802069067955017090e-01 4.915241003036499023e-01 -4.372743144631385803e-02
1.060713827610015869e-01 -2.388614118099212646e-01 -4.932270944118499756e-01
-8.149989694356918335e-02 4.315084815025329590e-01 4.951767623424530029e-02
1.350906789302825928e-01 -3.601349294185638428e-01 3.865099549293518066e-01
1.501926630735397339e-01 -4.253194332122802734e-01 2.547227144241333008e-01
3.982617855072021484e-01 1.184706389904022217e-01 -1.089145336300134659e-02
2.900512516498565674e-01 -7.964314520359039307e-02 -5.037356019020080566e-01
-2.832091227173805237e-02 -3.404562771320343018e-01 -2.614287137985229492e-01
-3.354525864124298096e-01 3.979625999927520752e-01 -3.765683174133300781e-01
1.490814685821533203e-01 -5.381938070058822632e-02 5.608801245689392090e-01
-2.540319859981536865e-01 9.873032569885253906e-02 -5.412158966064453125e-01
6.183480024337768555e-01 -2.413573861122131348e-01 8.215283602476119995e-02
-5.333632826805114746e-01 1.384969502687454224e-01 2.623718678951263428e-01
1.251634508371353149e-01 -8.713476359844207764e-03 -5.643770098686218262e-01
3.669067323207855225e-01 -1.211089789867401123e-01 4.662578999996185303e-01
-1.821057051420211792e-01 -2.829701304435729980e-01 1.726363897323608398e-01
1.394530385732650757e-01 -1.410015970468521118e-01 -5.498102307319641113e-01
3.605849742889404297e-01 1.496452093124389648e-01 -9.132102876901626587e-02
1.707780212163925171e-01 1.857006847858428955e-01 3.867299258708953857e-01
-2.732667028903961182e-01 -2.085241526365280151e-01 -1.900420337915420532e-01
5.631667971611022949e-01 -9.140162169933319092e-02 -6.678503938019275665e-03
3.811570107936859131e-01 -1.295414865016937256e-01 4.572944641113281250e-01
-4.084002971649169922e-02 4.054901301860809326e-01 1.187608242034912109e-01
-3.082538843154907227e-01 -1.218123361468315125e-01 3.332117795944213867e-01
3.885687887668609619e-01 -3.234451115131378174e-01 -3.941330909729003906e-01
-3.853401243686676025e-01 1.378038227558135986e-01 -4.709017872810363770e-01
2.361943572759628296e-01 -2.966547906398773193e-01 4.780810475349426270e-01
-4.273787736892700195e-01 1.036813855171203613e-01 -4.184258580207824707e-01
3.656800687313079834e-01 -5.000635981559753418e-01 4.075727611780166626e-02
2.600222229957580566e-01 6.895760446786880493e-02 4.391374886035919189e-01
-2.610885202884674072e-01 -2.365863621234893799e-01 -9.916073083877563477e-02
5.580771565437316895e-01 -1.622465848922729492e-01 -2.124960720539093018e-01
3.183723688125610352e-01 -3.693705499172210693e-01 -3.712125420570373535e-01
-2.905378639698028564e-01 4.914461672306060791e-01 3.427564725279808044e-02
2.300722301006317139e-01 2.041943557560443878e-02 -5.070035457611083984e-01
5.612299442291259766e-01 -2.660723030567169189e-01 2.724200487136840820e-01
