3.311243653297424316e-02 -8.560127764940261841e-02 9.204790741205215454e-02
-6.296567320823669434e-01 -3.851723298430442810e-02 -2.038249373435974121e-01
1.090484559535980225e-01 7.452272623777389526e-02 1.625095307826995850e-01
-5.569398775696754456e-02 -6.912510097026824951e-02 1.951183974742889404e-01
6.974223256111145020e-01 -6.481906771659851074e-02 4.452487826347351074e-02
3.003736734390258789e-01 2.807535231113433838e-02 -2.638319134712219238e-01
6.169652342796325684e-01 -2.276963181793689728e-02 2.410849034786224365e-01
-4.040501415729522705e-01 6.986729055643081665e-02 1.436885893344879150e-01
-2.166202366352081299e-01 -5.810834094882011414e-02 -2.274862229824066162e-01
5.867413878440856934e-01 5.019875615835189819e-02 -1.480119228363037109e-01
-5.373157262802124023e-01 7.167021185159683228e-02 -7.457536458969116211e-02
1.775269806385040283e-01 -7.393656671047210693e-02 1.708447784185409546e-01
-3.167038857936859131e-01 5.590004846453666687e-02 2.195417732000350952e-01
7.010394930839538574e-01 3.886237367987632751e-02 1.743389368057250977e-01
7.272802591323852539e-01 -6.288398802280426025e-02 1.316112373024225235e-02
-3.946043848991394043e-01 -3.732930123805999756e-02 -2.559419274330139160e-01
-7.646023035049438477e-01 -3.729587420821189880e-02 -1.548536419868469238e-01
-8.095000982284545898e-01 -1.055535301566123962e-02 -1.831233948469161987e-01
8.983008563518524170e-02 -6.443133205175399780e-02 2.158515602350234985e-01
-6.938034892082214355e-01 -4.102073237299919128e-02 -1.750228554010391235e-01
3.326648473739624023e-01 -3.452601283788681030e-02 -2.604546546936035156e-01
-1.876360028982162476e-01 6.201023980975151062e-02 2.143124639987945557e-01
4.709844887256622314e-01 -5.167250707745552063e-02 2.169077098369598389e-01
-2.311777025461196899e-01 -8.130699396133422852e-02 -1.084259748458862305e-01
1.028367280960083008e-01 -8.805721253156661987e-02 -5.444498732686042786e-02
5.275816321372985840e-01 6.982696801424026489e-02 7.336474955081939697e-02
-1.034876033663749695e-01 -1.747420430183410645e-02 -2.999936044216156006e-01
-7.764365077018737793e-01 5.495846271514892578e-02 -4.706533253192901611e-02
-1.284336447715759277e-01 -7.838517427444458008e-02 -1.459714025259017944e-01
3.123055100440979004e-01 2.572771534323692322e-02 -2.654618322849273682e-01
7.375100255012512207e-01 -6.072627380490303040e-02 5.144903436303138733e-02
-5.757400989532470703e-01 -5.525346472859382629e-02 1.523219197988510132e-01
3.841482698917388916e-01 -6.484505534172058105e-02 1.869770437479019165e-01
4.478986561298370361e-01 7.398025691509246826e-02 -4.750614613294601440e-02
-1.485340856015682220e-02 -8.596837520599365234e-02 8.625875413417816162e-02
-4.060440659523010254e-01 -4.617868736386299133e-02 -2.361874580383300781e-01
-4.730821549892425537e-01 -6.776180118322372437e-02 -1.400576084852218628e-01
-7.232635617256164551e-01 -5.813059583306312561e-02 -6.079775094985961914e-02
5.805570483207702637e-01 -7.239783555269241333e-02 -4.855301603674888611e-02
-9.291173815727233887e-01 2.264657244086265564e-02 -8.957441896200180054e-02
-8.689806461334228516e-01 4.206288978457450867e-02 4.150563850998878479e-02
1.490880697965621948e-01 2.595745725557208061e-03 -2.980260848999023438e-01
2.641564421355724335e-02 -7.232569158077239990e-02 -1.836229711771011353e-01
-5.170077681541442871e-01 -3.536524623632431030e-02 -2.383950501680374146e-01
-6.492140889167785645e-02 8.716657012701034546e-02 1.194323040544986725e-02
3.837436735630035400e-01 7.891079038381576538e-02 1.437323726713657379e-02
-2.508201301097869873e-01 8.505842834711074829e-02 1.520882640033960342e-02
3.089585900306701660e-01 2.745219273492693901e-03 -2.834100425243377686e-01
5.517644882202148438e-01 -1.472353283315896988e-02 2.623600661754608154e-01
5.713355541229248047e-01 4.883194714784622192e-02 -1.588440239429473877e-01
-2.549841105937957764e-01 -8.486057817935943604e-02 4.458548501133918762e-02
2.376252561807632446e-01 6.257379055023193359e-02 -1.857554167509078979e-01
6.926025748252868652e-01 -3.618640452623367310e-02 -1.745200604200363159e-01
-5.793000459671020508e-01 -7.136422395706176758e-02 -2.546386793255805969e-02
-4.261688590049743652e-01 7.814500480890274048e-02 6.156886741518974304e-02
-4.161936640739440918e-01 5.840739235281944275e-02 -1.913051307201385498e-01
4.617422223091125488e-01 4.543309658765792847e-02 -2.008830010890960693e-01
-1.622077226638793945e-01 -7.308447360992431641e-02 -1.733875125646591187e-01
2.073586732149124146e-01 6.330994516611099243e-02 -1.869508922100067139e-01
1.774247735738754272e-01 7.570111006498336792e-02 -1.263129711151123047e-01
-7.970765233039855957e-01 -1.162173133343458176e-02 -1.875900179147720337e-01
2.143779247999191284e-01 -7.334894686937332153e-02 -1.656788438558578491e-01
-3.517217636108398438e-01 -8.296474069356918335e-02 4.373483359813690186e-03
-3.883812427520751953e-01 -2.983989752829074860e-02 2.608928978443145752e-01
7.098578810691833496e-01 -4.089845716953277588e-02 1.798918545246124268e-01
3.298994004726409912e-01 5.916852876543998718e-02 -1.836691349744796753e-01
1.805819422006607056e-01 -8.435760438442230225e-02 9.538679569959640503e-02
-2.867348790168762207e-01 -3.639331087470054626e-02 2.649428844451904297e-01
3.768322467803955078e-01 -8.105818927288055420e-02 -7.063721865415573120e-02
-5.722226500511169434e-01 7.282425463199615479e-02 -5.504741333425045013e-03
6.489456444978713989e-02 -5.490235984325408936e-02 2.460338324308395386e-01
-4.995431602001190186e-01 5.001073330640792847e-02 -2.032221406698226929e-01
4.409220218658447266e-01 2.441539987921714783e-02 2.701841592788696289e-01
1.308091133832931519e-01 4.378594458103179932e-03 3.105009794235229492e-01
4.648680090904235840e-01 7.462005317211151123e-02 -1.750540174543857574e-02
-5.045123100280761719e-01 -6.677996367216110229e-02 1.197254806756973267e-01
7.761209607124328613e-01 5.055465549230575562e-02 3.294635564088821411e-02
-3.471418321132659912e-01 -7.340826839208602905e-02 1.306050121784210205e-01
3.176375627517700195e-01 7.172913849353790283e-02 -1.233463212847709656e-01
-3.325681090354919434e-01 6.162590160965919495e-02 1.974653601646423340e-01
9.646701067686080933e-02 4.804254695773124695e-02 2.611972093582153320e-01
3.439947366714477539e-01 -7.783711701631546021e-02 1.217128261923789978e-01
2.583599090576171875e-02 -5.248368531465530396e-02 -2.502015233039855957e-01
4.202097281813621521e-02 6.774330139160156250e-02 -1.832084208726882935e-01
-2.037024050951004028e-01 7.092952728271484375e-02 -1.648906171321868896e-01
-1.954980939626693726e-01 -4.270415008068084717e-02 -2.661839127540588379e-01
8.702314496040344238e-01 2.638834156095981598e-02 1.158172711730003357e-01
-4.236685037612915039e-01 -4.338499158620834351e-02 -2.396637648344039917e-01
-1.443509198725223541e-02 -8.901898562908172607e-02 -3.792791441082954407e-02
7.131009697914123535e-01 -5.508442595601081848e-02 -1.008872687816619873e-01
6.260585784912109375e-01 -1.758116856217384338e-02 -2.202245891094207764e-01
5.065975189208984375e-01 5.248876288533210754e-02 -1.661330461502075195e-01
-4.234291017055511475e-01 -7.924957573413848877e-02 -4.801026359200477600e-02
6.168869733810424805e-01 -6.663875281810760498e-02 -8.294150978326797485e-02
-8.280231952667236328e-01 -3.825836628675460815e-02 -1.119266748428344727e-01
7.882037758827209473e-01 3.900145366787910461e-02 -9.167336672544479370e-02
-6.795095801353454590e-01 5.756571888923645020e-02 -1.101589500904083252e-01
1.683155745267868042e-01 8.415648341178894043e-02 5.989124625921249390e-02
1.465154886245727539e-01 -3.476514294743537903e-02 2.857739329338073730e-01
-3.484280109405517578e-01 -6.363178789615631104e-02 -1.912806034088134766e-01
-1.100876703858375549e-01 -6.447408348321914673e-02 -2.134485840797424316e-01
6.802585124969482422e-01 2.750673331320285797e-02 2.100133895874023438e-01
-8.085092306137084961e-01 5.158691480755805969e-02 -4.131955280900001526e-02
3.304439783096313477e-01 7.180266082286834717e-02 1.449276357889175415e-01
9.631408452987670898e-01 3.650221275165677071e-03 -3.980325907468795776e-02
5.676955580711364746e-01 5.934423953294754028e-02 1.421379297971725464e-01
2.767252326011657715e-01 -5.749415978789329529e-02 2.279782891273498535e-01
-6.101124286651611328e-01 -5.857029184699058533e-02 -1.387549489736557007e-01
2.385559976100921631e-01 3.598938509821891785e-02 2.771844863891601562e-01
4.090144634246826172e-01 -6.818673014640808105e-02 1.666179299354553223e-01
2.982032112777233124e-02 -8.957879990339279175e-02 -1.807210221886634827e-02
3.536446988582611084e-01 -8.210605382919311523e-02 7.581947743892669678e-02
1.492304205894470215e-01 7.843977212905883789e-02 -1.104119643568992615e-01
2.084299176931381226e-01 -6.379321217536926270e-02 -2.067581713199615479e-01
4.588837623596191406e-01 5.982604250311851501e-02 -1.495874226093292236e-01
5.676530301570892334e-02 -8.819257467985153198e-02 -5.678416416049003601e-02
-3.684742152690887451e-01 -3.213386982679367065e-02 2.606092095375061035e-01
1.347448527812957764e-01 -8.762593567371368408e-02 5.805148184299468994e-02
-6.379811167716979980e-01 -6.317418813705444336e-02 -9.049161523580551147e-02
-6.024302244186401367e-01 -5.550976097583770752e-02 -1.571341753005981445e-01
-3.286646604537963867e-01 3.166799992322921753e-02 -2.681929171085357666e-01
4.019183292984962463e-02 -5.189126729965209961e-02 2.538715004920959473e-01
-4.528423547744750977e-01 7.620494067668914795e-02 -6.943357735872268677e-02
-8.834780454635620117e-01 2.022135071456432343e-02 1.174449324607849121e-01
-3.361441195011138916e-01 -8.155027776956558228e-02 -6.955642998218536377e-02
2.380464412271976471e-02 -8.794657140970230103e-02 6.020077317953109741e-02
8.205341100692749023e-01 4.498331248760223389e-02 2.805682271718978882e-02
-4.246579110622406006e-01 6.563910096883773804e-02 -1.581983566284179688e-01
-5.061765909194946289e-01 -7.452762871980667114e-02 -5.959476530551910400e-02
-7.901325821876525879e-01 4.703207686543464661e-02 9.221802651882171631e-02
4.701206088066101074e-01 -7.300531119108200073e-02 1.201342120766639709e-01
-3.150934278964996338e-01 -5.973027274012565613e-02 -2.111396938562393188e-01
-6.714284420013427734e-01 -5.744049325585365295e-02 -1.129755154252052307e-01
2.140045352280139923e-02 -5.586357787251472473e-02 2.432401627302169800e-01
8.027654290199279785e-01 -5.382001772522926331e-02 4.540865868330001831e-02
2.686424553394317627e-01 -2.690397575497627258e-02 2.893399000167846680e-01
3.446495532989501953e-02 -8.786502480506896973e-02 6.171435490250587463e-02
6.570693254470825195e-01 3.989312052726745605e-02 -1.573042720556259155e-01
6.217789649963378906e-01 6.098688766360282898e-02 9.990059584379196167e-02
5.197864770889282227e-01 6.929394602775573730e-02 -5.619921535253524780e-02
-4.207803010940551758e-01 -6.351166963577270508e-02 1.648090332746505737e-01
-3.710384964942932129e-01 -8.208705484867095947e-02 -2.687179110944271088e-02
-2.020562887191772461e-01 2.817794680595397949e-02 -2.822911143302917480e-01
-1.602145098149776459e-02 5.848061665892601013e-02 2.342902719974517822e-01
-4.413168430328369141e-01 6.658781319856643677e-02 -1.492602676153182983e-01
5.760344266891479492e-01 -3.271752595901489258e-02 -2.167667299509048462e-01
-4.566407203674316406e-01 5.200102925300598145e-02 -2.057283669710159302e-01
5.316449403762817383e-01 -6.915356963872909546e-02 -1.093447431921958923e-01
7.324979305267333984e-01 5.541056022047996521e-02 4.871344193816184998e-03
7.240319252014160156e-01 -5.210956558585166931e-02 -1.097297742962837219e-01
-3.198652714490890503e-02 8.670257776975631714e-02 -2.445964701473712921e-02
3.695137202739715576e-01 -2.729814872145652771e-02 2.792489528656005859e-01
5.664479732513427734e-01 4.627714306116104126e-02 -1.693993657827377319e-01
-3.078764975070953369e-01 7.754480093717575073e-02 -1.071323379874229431e-01
5.585922002792358398e-01 -3.722219541668891907e-02 -2.137105166912078857e-01
-7.467544078826904297e-01 5.726183950901031494e-02 -5.837631598114967346e-02
-5.035508871078491211e-01 7.177957892417907715e-02 9.348417818546295166e-02
-3.831697404384613037e-01 -7.431123405694961548e-02 1.130838468670845032e-01
2.375608831644058228e-01 2.079235762357711792e-02 2.965342104434967041e-01
3.548760712146759033e-01 -7.782590389251708984e-02 1.189926117658615112e-01
-5.851951837539672852e-01 -2.313478477299213409e-02 -2.417035847902297974e-01
-3.518530353903770447e-02 8.639966696500778198e-02 4.992172494530677795e-02
-5.471898317337036133e-01 6.271953880786895752e-02 -1.388671547174453735e-01
-3.632363379001617432e-01 -7.227705419063568115e-02 -1.449388414621353149e-01
6.751272082328796387e-01 -6.741449981927871704e-02 2.034691534936428070e-02
-6.506317257881164551e-01 9.075338952243328094e-03 -2.367182970046997070e-01
5.365018248558044434e-01 7.098019868135452271e-02 -2.057289006188511848e-03
5.619637966156005859e-01 3.869359567761421204e-02 2.210035771131515503e-01
-5.963683128356933594e-01 -6.046563759446144104e-02 -1.343365758657455444e-01
-6.818534135818481445e-01 -5.092617124319076538e-02 -1.434032618999481201e-01
7.234993577003479004e-01 5.216938629746437073e-02 9.469687938690185547e-02
-6.899383068084716797e-01 6.394058465957641602e-02 -3.281825035810470581e-02
4.920099675655364990e-01 1.715756766498088837e-02 -2.454799264669418335e-01
2.870489954948425293e-01 -5.546255409717559814e-02 -2.237096875905990601e-01
-1.623121351003646851e-01 5.934128910303115845e-02 -2.156544029712677002e-01
2.961929142475128174e-01 6.477782130241394043e-02 -1.664101332426071167e-01
-7.589216232299804688e-01 4.585390537977218628e-02 -1.282191425561904907e-01
2.513088881969451904e-01 6.848758459091186523e-02 1.794814169406890869e-01
2.031240016222000122e-01 2.669901400804519653e-02 2.926869988441467285e-01
3.288865685462951660e-01 -6.333670765161514282e-02 -1.922574639320373535e-01
8.156486600637435913e-02 2.042451500892639160e-02 3.035181164741516113e-01
-6.793612837791442871e-01 -3.513037040829658508e-02 -1.956977695226669312e-01
-4.520148038864135742e-02 -4.208422824740409851e-02 -2.722452580928802490e-01
3.222931325435638428e-01 5.477466061711311340e-02 2.241272777318954468e-01
-1.201305985450744629e-01 5.884400010108947754e-02 -2.188063263893127441e-01
3.834673166275024414e-01 -2.450822293758392334e-02 2.806919813156127930e-01
-5.611592531204223633e-01 -7.270403951406478882e-02 -1.040839031338691711e-02
-8.818668723106384277e-01 4.171734675765037537e-03 1.333765387535095215e-01
-4.755809903144836426e-01 1.058101281523704529e-02 2.660957276821136475e-01
4.374207556247711182e-01 2.363691665232181549e-02 -2.486661225557327271e-01
2.557170391082763672e-01 8.266369998455047607e-02 -2.310699597001075745e-02
2.346623390913009644e-01 5.392491444945335388e-02 -2.165520936250686646e-01
2.609685659408569336e-01 -6.105821579694747925e-02 -2.100965678691864014e-01
8.530673384666442871e-02 4.736953601241111755e-02 -2.474838644266128540e-01
2.118403464555740356e-02 -4.956873133778572083e-02 2.593136727809906006e-01
2.120584696531295776e-01 5.054474249482154846e-02 -2.289725691080093384e-01
-6.700391769409179688e-01 6.613290309906005859e-02 -5.565862171351909637e-03
-5.212154984474182129e-01 -7.283032685518264771e-02 5.632594227790832520e-02
3.169658780097961426e-01 5.940771102905273438e-02 2.088899612426757812e-01
4.047393202781677246e-01 -7.486239820718765259e-02 -1.173505485057830811e-01
-2.942835092544555664e-01 7.407651841640472412e-02 1.433379203081130981e-01
7.640135288238525391e-01 -5.879488959908485413e-02 -1.118853408843278885e-02
4.752218127250671387e-01 2.096965536475181580e-02 -2.447234243154525757e-01
-7.453966140747070312e-01 5.158668011426925659e-02 -1.067570298910140991e-01
4.344746172428131104e-01 3.489276766777038574e-02 -2.312705963850021362e-01
-3.687039017677307129e-01 -3.704749792814254761e-02 -2.599173784255981445e-01
-8.520691841840744019e-02 -6.321009248495101929e-02 2.164141237735748291e-01
-4.364691078662872314e-01 6.447695195674896240e-02 -1.612814813852310181e-01
4.677574634552001953e-01 -7.830975949764251709e-02 6.722301989793777466e-02
2.927227616310119629e-01 -8.491281419992446899e-02 -5.294157192111015320e-02
8.158266544342041016e-01 -1.497753895819187164e-02 -1.528982520103454590e-01
1.517077535390853882e-01 5.651799216866493225e-02 -2.174485176801681519e-01
-3.926869332790374756e-01 -6.236394867300987244e-02 1.768139153718948364e-01
-6.337338685989379883e-01 -5.625265464186668396e-02 -1.402490586042404175e-01
-9.155607819557189941e-01 -3.296998515725135803e-02 -1.955666765570640564e-02
5.268461108207702637e-01 -4.496386274695396423e-02 2.231922596693038940e-01
-1.393495053052902222e-01 -8.753295987844467163e-02 -4.734933748841285706e-02
-4.055052399635314941e-01 8.075654506683349609e-02 5.992896854877471924e-03
3.064023852348327637e-01 7.244162261486053467e-02 -1.214831992983818054e-01
-6.098696589469909668e-01 -6.766925752162933350e-02 -6.300085783004760742e-02
-1.290226578712463379e-01 -8.669198304414749146e-02 6.015132740139961243e-02
-3.639231324195861816e-01 -4.858741536736488342e-02 -2.367680072784423828e-01
6.193504333496093750e-01 5.421295762062072754e-02 -1.155111715197563171e-01
4.859888851642608643e-01 -6.186829879879951477e-03 -2.569142580032348633e-01
7.179273366928100586e-01 2.999670058488845825e-02 -1.594554483890533447e-01
7.208032608032226562e-01 3.181107342243194580e-02 1.858961880207061768e-01
4.062494933605194092e-01 5.721730366349220276e-02 2.009368836879730225e-01
3.826972842216491699e-01 -5.142828449606895447e-02 -2.200300395488739014e-01
-4.442284405231475830e-01 7.222653180360794067e-02 -1.121106222271919250e-01
-6.841278672218322754e-01 6.331333518028259277e-02 -5.363572761416435242e-02
8.631856441497802734e-01 2.147530764341354370e-02 1.362935453653335571e-01
5.509935021400451660e-01 -7.499855756759643555e-02 5.019845440983772278e-02
6.172422170639038086e-01 -7.184350490570068359e-02 9.494742378592491150e-03
-4.804565310478210449e-01 5.921480432152748108e-02 -1.747276186943054199e-01
3.812611997127532959e-01 7.889427244663238525e-02 -1.356383552774786949e-03
5.104410648345947266e-01 -6.107504293322563171e-02 1.746776700019836426e-01
-4.402112364768981934e-01 -7.918393611907958984e-02 -2.509309351444244385e-02
3.822430670261383057e-01 3.376309573650360107e-02 2.654035687446594238e-01
4.434264898300170898e-01 -1.973682269454002380e-02 2.772100269794464111e-01
-2.258744984865188599e-01 8.491684496402740479e-02 4.256445914506912231e-02
-7.329249978065490723e-01 -5.179263651371002197e-02 -1.087725311517715454e-01
-2.352965921163558960e-01 5.458544939756393433e-02 2.334897369146347046e-01
-3.822594285011291504e-01 -8.086193352937698364e-02 -5.084708333015441895e-02
-1.954753249883651733e-01 -8.686119318008422852e-02 -3.911226242780685425e-02
-1.187124848365783691e-01 -4.545487463474273682e-02 -2.645095288753509521e-01
6.335949897766113281e-01 -6.536425091326236725e-03 2.477307617664337158e-01
-5.980253219604492188e-01 -6.729536503553390503e-02 -7.932047545909881592e-02
6.469423323869705200e-02 -8.764570206403732300e-02 -6.568297743797302246e-02
9.812446683645248413e-02 -8.681850880384445190e-02 7.504966109991073608e-02
1.145816147327423096e-01 -8.867073804140090942e-02 3.880549967288970947e-02
-8.905228376388549805e-01 8.324676193296909332e-03 1.263794451951980591e-01
-6.366606950759887695e-01 -5.211742594838142395e-02 1.412362009286880493e-01
-9.204611182212829590e-02 -8.532164990901947021e-02 -9.112280607223510742e-02
2.919008135795593262e-01 -2.517215441912412643e-03 -2.861924767494201660e-01
4.902368187904357910e-01 -4.592250287532806396e-02 2.284510284662246704e-01
5.174548029899597168e-01 5.588125810027122498e-02 1.779191344976425171e-01
-2.635748088359832764e-01 -5.467681586742401123e-02 2.265082150697708130e-01
2.621788084506988525e-01 7.578969001770019531e-02 1.322992295026779175e-01
1.051794588565826416e-01 -4.839829355478286743e-02 2.616282403469085693e-01
4.333422333002090454e-02 -8.870179951190948486e-02 4.537537693977355957e-02
-1.852245181798934937e-01 8.084193617105484009e-02 1.106750890612602234e-01
-5.360038876533508301e-01 7.435803860425949097e-02 -3.078337572515010834e-02
3.928145766258239746e-01 -8.333181589841842651e-02 1.502808183431625366e-02
-6.840750575065612793e-01 -5.265221744775772095e-02 1.153460964560508728e-01
-6.239392161369323730e-01 6.801457703113555908e-02 -5.129981413483619690e-02
-2.453025281429290771e-01 5.236906558275222778e-02 -2.319812625646591187e-01
-5.193864107131958008e-01 2.359250374138355255e-02 2.479654550552368164e-01
4.953591525554656982e-01 7.030130177736282349e-02 9.191932529211044312e-02
-6.972065567970275879e-02 -8.810703456401824951e-02 -5.246450006961822510e-02
7.042326778173446655e-02 -7.637471705675125122e-02 1.623590290546417236e-01
2.348121851682662964e-01 -8.653069287538528442e-02 -4.802686721086502075e-02
-5.864815711975097656e-01 6.909230351448059082e-02 -7.069968432188034058e-02
-6.839833408594131470e-02 -6.927882879972457886e-02 -1.963873952627182007e-01
-6.903617978096008301e-01 6.430803239345550537e-02 1.490100752562284470e-02
-3.854480683803558350e-01 7.794441282749176025e-02 -7.998586446046829224e-02
1.864522695541381836e-02 -8.969201147556304932e-02 -7.365462370216846466e-03
1.873747408390045166e-01 4.767391830682754517e-03 3.082349300384521484e-01
-8.618631958961486816e-01 -2.268356271088123322e-02 -1.392634958028793335e-01
-7.927761077880859375e-01 -2.061022631824016571e-02 1.613219976425170898e-01
-2.608386576175689697e-01 -8.196501433849334717e-02 8.439411967992782593e-02
-2.609013020992279053e-01 -4.779574647545814514e-02 2.450216561555862427e-01
1.875726133584976196e-01 8.481119573116302490e-02 -2.636268967762589455e-03
5.247918367385864258e-01 6.272797286510467529e-02 -1.097150295972824097e-01
-3.775778710842132568e-01 -4.425513744354248047e-02 -2.448603957891464233e-01
6.289981603622436523e-01 -6.243387982249259949e-02 1.243737787008285522e-01
-8.778755664825439453e-01 -2.771130949258804321e-02 9.300704300403594971e-02
-2.251849323511123657e-01 -8.676619827747344971e-02 2.317721955478191376e-03
2.648418247699737549e-01 -8.108709007501602173e-02 -1.068424284458160400e-01
-4.646011590957641602e-01 7.108299434185028076e-02 -1.138520240783691406e-01
2.683689892292022705e-01 8.158554136753082275e-02 -3.979311510920524597e-02
5.145123600959777832e-01 6.752610951662063599e-02 -7.831298559904098511e-02
7.728896737098693848e-01 -4.828656092286109924e-02 -9.734012931585311890e-02
2.162525206804275513e-01 5.674324557185173035e-02 2.303681224584579468e-01
3.612228929996490479e-01 2.000720705837011337e-04 -2.772128283977508545e-01
-2.822956144809722900e-01 -8.500815927982330322e-02 1.883064582943916321e-02
1.306308805942535400e-02 8.488201349973678589e-02 7.745216041803359985e-02
-9.963989257812500000e-02 6.969334185123443604e-02 -1.764258593320846558e-01
2.416422367095947266e-01 -6.752377748489379883e-02 1.953691095113754272e-01
-4.841604530811309814e-01 2.693576551973819733e-02 -2.545904517173767090e-01
-3.899160325527191162e-01 -8.094343543052673340e-02 2.784791961312294006e-02
1.596573144197463989e-01 8.478742092847824097e-02 4.834866896271705627e-02
-5.800828337669372559e-01 -4.638959467411041260e-02 -1.976364403963088989e-01
-4.543926715850830078e-01 -6.609371304512023926e-02 1.421192437410354614e-01
-6.778503209352493286e-02 -2.717843651771545410e-02 -2.926349341869354248e-01
-7.220340967178344727e-01 -3.294720128178596497e-02 1.678426116704940796e-01
-1.396255493164062500e-01 -8.793840557336807251e-02 -3.607625141739845276e-02
-1.413784176111221313e-02 -4.297609254717826843e-02 -2.706476449966430664e-01
-1.707770824432373047e-01 -6.174635142087936401e-02 -2.194294780492782593e-01
8.214967250823974609e-01 -5.107473954558372498e-02 -2.544876001775264740e-02
-4.075379371643066406e-01 6.733021140098571777e-02 -1.532480418682098389e-01
4.256377518177032471e-01 -1.515646371990442276e-02 -2.649753689765930176e-01
-4.009093344211578369e-01 -8.082225173711776733e-02 1.623340137302875519e-02
3.339851796627044678e-01 8.064231276512145996e-02 3.207610547542572021e-02
-3.200882971286773682e-01 4.358675703406333923e-02 2.505141496658325195e-01
-4.813529253005981445e-01 7.507697492837905884e-02 6.995101273059844971e-02
-2.866749167442321777e-01 -8.409257978200912476e-02 -5.217346549034118652e-02
-2.967087551951408386e-02 2.226633951067924500e-02 -2.924366593360900879e-01
5.879953503608703613e-01 6.688906997442245483e-02 5.531746521592140198e-02
-2.819472178816795349e-02 -8.923456072807312012e-02 2.493190392851829529e-02
1.398490816354751587e-01 -8.900710195302963257e-02 -1.647235080599784851e-02
4.000109434127807617e-02 -8.740995079278945923e-02 6.894668191671371460e-02
2.006928473711013794e-01 2.899025380611419678e-02 -2.732887566089630127e-01
5.639121532440185547e-01 5.828858166933059692e-02 -1.190216243267059326e-01
-1.535529792308807373e-01 8.605887740850448608e-02 -2.702875807881355286e-02
-8.840240538120269775e-02 -1.425510086119174957e-02 3.052566051483154297e-01
2.067105323076248169e-01 3.327849507331848145e-02 -2.663064599037170410e-01
8.514496684074401855e-01 3.568635135889053345e-02 8.827579021453857422e-02
2.844028174877166748e-01 -7.904908061027526855e-02 -1.189977824687957764e-01
3.394256811589002609e-03 -3.309870511293411255e-02 2.894065380096435547e-01
-8.051831126213073730e-01 -2.478397265076637268e-02 1.476086378097534180e-01
7.856937050819396973e-01 -5.676669999957084656e-03 -1.703914403915405273e-01
-1.708475798368453979e-01 -4.239186272025108337e-02 -2.681519389152526855e-01
4.892085194587707520e-01 -7.931128144264221191e-02 3.036361420527100563e-03
-4.157168269157409668e-01 7.218832522630691528e-02 -1.212927252054214478e-01
4.880087673664093018e-01 -6.778657436370849609e-02 1.481207013130187988e-01
4.619719684123992920e-01 -5.806334689259529114e-02 1.981173902750015259e-01
-6.849905848503112793e-01 5.360753461718559265e-02 -1.299905478954315186e-01
4.273153245449066162e-01 5.936257541179656982e-02 1.875988543033599854e-01
-2.500175833702087402e-01 8.427476882934570312e-02 -3.681336715817451477e-02
-1.958558857440948486e-01 6.614634394645690918e-02 -1.879590004682540894e-01
-6.785128712654113770e-01 -3.228969871997833252e-02 1.860965341329574585e-01
-4.499578475952148438e-02 2.370266243815422058e-02 -2.910328507423400879e-01
-6.797293424606323242e-01 5.098918080329895020e-02 1.386194825172424316e-01
1.826398074626922607e-02 -8.948639780282974243e-02 -2.310907840728759766e-02
6.437598466873168945e-01 -2.990816719830036163e-03 2.456726878881454468e-01
-6.573385596275329590e-01 5.299829319119453430e-02 1.401135325431823730e-01
-8.014515638351440430e-01 -4.759169369935989380e-02 5.683073028922080994e-02
-2.821987271308898926e-01 5.498516373336315155e-03 2.951132357120513916e-01
-1.193900927901268005e-01 -8.525365591049194336e-02 -8.827783167362213135e-02
-3.556821942329406738e-01 2.652734331786632538e-02 2.728376984596252441e-01
-2.453755438327789307e-01 -6.691117584705352783e-02 -1.930564194917678833e-01
-7.634021043777465820e-01 4.371376335620880127e-02 1.254040449857711792e-01
1.779644489288330078e-01 -3.734220564365386963e-02 2.805420458316802979e-01
8.327722549438476562e-01 -5.064242333173751831e-02 2.480042167007923126e-05
5.223310738801956177e-02 5.477174371480941772e-02 -2.295464426279067993e-01
-2.323974072933197021e-01 8.067797869443893433e-02 1.037427634000778198e-01
-6.327816843986511230e-01 -3.531267866492271423e-02 1.950526684522628784e-01
-5.204719901084899902e-01 -7.480676472187042236e-02 -3.404277190566062927e-02
6.543368101119995117e-01 6.270400434732437134e-02 9.862638078629970551e-03
-1.917682439088821411e-01 5.283401533961296082e-02 -2.341694384813308716e-01
1.915218532085418701e-01 -7.198737561702728271e-02 1.796208769083023071e-01
1.748725175857543945e-01 -7.578241080045700073e-02 1.609437614679336548e-01
-6.402783989906311035e-01 -4.365430772304534912e-02 1.706614494323730469e-01
-6.856357455253601074e-01 -6.320201605558395386e-02 6.378326565027236938e-03
-3.563318774104118347e-02 -8.761640638113021851e-02 6.184488907456398010e-02
-2.978198789060115814e-02 5.598727241158485413e-02 2.416234910488128662e-01
-1.489793211221694946e-01 8.410301059484481812e-02 7.948155701160430908e-02
-2.844532132148742676e-01 -6.811056286096572876e-02 1.737333983182907104e-01
-5.300256609916687012e-01 7.516479492187500000e-02 -9.099804796278476715e-03
-3.488886058330535889e-01 3.242441266775131226e-02 -2.649644017219543457e-01
-3.834827244281768799e-01 -7.447806745767593384e-02 -1.240730211138725281e-01
-5.755689740180969238e-01 -6.919209659099578857e-02 5.800122395157814026e-02
1.193045377731323242e-01 3.136750310659408569e-02 -2.759999632835388184e-01
-5.253853797912597656e-01 5.300444737076759338e-02 1.860957145690917969e-01
-8.127011060714721680e-01 4.075772315263748169e-02 1.063667312264442444e-01
-5.660930275917053223e-01 4.761966690421104431e-02 -1.947966814041137695e-01
-2.829989194869995117e-01 -8.405547589063644409e-02 4.459854587912559509e-02
4.908692240715026855e-01 7.293210178613662720e-02 5.527256429195404053e-02
-8.386614918708801270e-01 -2.236235514283180237e-02 -1.536768674850463867e-01
-5.226817727088928223e-01 -6.408355385065078735e-02 -1.440010368824005127e-01
-6.782317161560058594e-01 -4.868904501199722290e-02 1.368967145681381226e-01
9.162727594375610352e-01 -3.333963826298713684e-02 -3.161491081118583679e-02
-1.993042677640914917e-01 -5.041381344199180603e-02 2.454023808240890503e-01
1.750525981187820435e-01 6.272678077220916748e-02 -1.931903660297393799e-01
-4.157169461250305176e-01 -7.459130883216857910e-02 9.844663739204406738e-02
-6.186433434486389160e-01 -3.108705952763557434e-02 2.079810053110122681e-01
-3.014564514160156250e-01 -2.760180085897445679e-02 -2.805148959159851074e-01
-6.312479972839355469e-01 -4.644397273659706116e-02 1.650584787130355835e-01
9.257540702819824219e-01 -1.982266455888748169e-02 1.049644500017166138e-01
-1.600325256586074829e-01 1.683859154582023621e-02 -2.956873774528503418e-01
4.709507524967193604e-02 -8.210266381502151489e-02 -1.252844631671905518e-01
-1.622310429811477661e-01 7.043464481830596924e-02 1.814668923616409302e-01
3.001815080642700195e-01 -3.764957189559936523e-02 -2.599335610866546631e-01
7.448558211326599121e-01 5.334129184484481812e-02 -1.746524684131145477e-02
-7.462044954299926758e-01 -5.749259516596794128e-02 8.497412782162427902e-04
-5.389784276485443115e-02 -5.042760819196701050e-02 2.553485631942749023e-01
-4.465406388044357300e-02 -8.486913144588470459e-02 -1.000316143035888672e-01
-3.729583323001861572e-01 8.079158514738082886e-02 4.984536021947860718e-02
2.163872569799423218e-01 8.268030732870101929e-02 6.921690702438354492e-02
-7.297109365463256836e-01 -3.910665959119796753e-02 1.474925875663757324e-01
7.576071619987487793e-01 5.025551840662956238e-02 7.653268426656723022e-02
3.702980279922485352e-01 6.865730136632919312e-02 1.547811478376388550e-01
6.009867191314697266e-01 3.453188762068748474e-02 -1.909867823123931885e-01
4.663783311843872070e-01 9.193249046802520752e-03 2.789270579814910889e-01
-9.802609682083129883e-02 -7.044404745101928711e-02 1.866125613451004028e-01
-4.581677913665771484e-02 -8.152374625205993652e-02 -1.293369978666305542e-01
7.345292568206787109e-01 5.529922991991043091e-02 2.240489795804023743e-02
8.344570994377136230e-01 3.124108538031578064e-02 -9.081285446882247925e-02
2.471955493092536926e-02 6.498531997203826904e-02 -1.956477463245391846e-01
-1.728628873825073242e-01 -5.730738490819931030e-02 -2.331766635179519653e-01
-5.338786244392395020e-01 5.764925479888916016e-02 1.663314849138259888e-01
-6.576339006423950195e-01 -4.636077210307121277e-02 1.549635082483291626e-01
9.687351435422897339e-02 7.333703339099884033e-02 1.702259182929992676e-01
-3.375279307365417480e-01 -2.328518964350223541e-02 2.764326930046081543e-01
-1.822515726089477539e-01 7.550860941410064697e-02 -1.403848379850387573e-01
8.249115943908691406e-01 4.411768540740013123e-02 3.811139613389968872e-02
-1.034863367676734924e-01 8.587738126516342163e-02 -4.172597452998161316e-02
-3.694851696491241455e-01 7.362167537212371826e-02 1.288260817527770996e-01
-1.757390797138214111e-01 4.016358032822608948e-02 2.715702056884765625e-01
3.981537520885467529e-01 -6.359315663576126099e-02 1.896248608827590942e-01
-3.599211871623992920e-01 6.944877654314041138e-02 -1.515968143939971924e-01
-6.518364548683166504e-01 -6.294576078653335571e-02 6.253907829523086548e-02
-6.706873178482055664e-01 4.157673567533493042e-02 1.743946224451065063e-01
6.984213832765817642e-03 -8.861984312534332275e-02 -4.924775660037994385e-02
-1.738386154174804688e-01 -8.731754124164581299e-02 -3.784145787358283997e-02
7.474761009216308594e-01 3.940507024526596069e-02 -1.162361577153205872e-01
1.980408430099487305e-01 8.467967063188552856e-02 8.530435152351856232e-03
-1.586653292179107666e-01 -5.857581645250320435e-02 -2.303025275468826294e-01
-6.794047951698303223e-01 -6.193565949797630310e-02 4.560190066695213318e-02
-2.787417769432067871e-01 -7.498037815093994141e-02 1.373765170574188232e-01
1.776857078075408936e-01 8.287807554006576538e-02 -5.692468211054801941e-02
-6.661115288734436035e-01 -5.856805294752120972e-02 8.982964605093002319e-02
-7.295547723770141602e-01 4.376356676220893860e-02 1.429161876440048218e-01
4.207005500793457031e-01 5.222326517105102539e-02 -1.896065622568130493e-01
-2.189476937055587769e-01 6.481747329235076904e-02 2.006308734416961670e-01
-2.403243184089660645e-01 4.324666038155555725e-02 2.602970302104949951e-01
-5.896557569503784180e-01 4.253610223531723022e-02 -2.029753476381301880e-01
5.322098135948181152e-01 7.105626910924911499e-02 -9.860618971288204193e-03
-6.604825705289840698e-02 -5.205408856272697449e-02 -2.513506710529327393e-01
-4.865419119596481323e-02 -7.320537418127059937e-02 -1.792046725749969482e-01
-9.150483012199401855e-01 -3.136602044105529785e-02 2.696275524795055389e-02
7.606012225151062012e-01 3.035655245184898376e-02 -1.389908939599990845e-01
-5.040282011032104492e-01 -4.154327139258384705e-02 2.167010903358459473e-01
-6.568146347999572754e-01 -2.652167528867721558e-02 2.041632980108261108e-01
-3.002710640430450439e-01 -8.328589797019958496e-02 -6.010657548904418945e-02
5.396074056625366211e-01 -6.290744245052337646e-02 1.575987339019775391e-01
-3.602436780929565430e-01 6.306869536638259888e-02 1.868548244237899780e-01
7.979502081871032715e-01 4.800809174776077271e-02 1.053542550653219223e-02
-4.774549901485443115e-01 -3.360949456691741943e-02 2.386920303106307983e-01
-5.551104247570037842e-02 -8.592443168163299561e-02 -8.759968727827072144e-02
-9.564093947410583496e-01 2.386768907308578491e-02 -4.065048694610595703e-02
-7.489002346992492676e-01 -5.379307642579078674e-02 5.913382396101951599e-02
2.054728567600250244e-01 7.425932586193084717e-02 1.534830182790756226e-01
-5.756441354751586914e-01 -3.702443838119506836e-02 2.084075361490249634e-01
1.919254064559936523e-01 4.604268446564674377e-02 -2.425130456686019897e-01
5.644439905881881714e-02 8.511514961719512939e-02 6.960601359605789185e-02
2.043353915214538574e-01 1.872421428561210632e-02 -2.847516238689422607e-01
2.750254869461059570e-01 8.229082822799682617e-02 4.248245805501937866e-02
-3.835202455520629883e-01 -5.757274851202964783e-02 -2.076005339622497559e-01
2.950777113437652588e-01 -4.133551567792892456e-02 -2.544054687023162842e-01
3.751591742038726807e-01 -3.956741839647293091e-02 -2.464741915464401245e-01
1.557343304157257080e-01 -7.325389236211776733e-02 -1.724363118410110474e-01
-6.725014448165893555e-01 5.743835493922233582e-02 1.096982434391975403e-01
-4.701553881168365479e-01 -5.533220991492271423e-02 1.849729120731353760e-01
-2.954896986484527588e-01 3.994182497262954712e-02 -2.570411562919616699e-01
2.994726598262786865e-01 -2.679511532187461853e-02 2.869402170181274414e-01
-3.676762580871582031e-01 -1.494696550071239471e-02 -2.845068871974945068e-01
-6.854614615440368652e-01 -6.284477561712265015e-02 -3.890765085816383362e-02
-3.235593736171722412e-01 -8.102510124444961548e-02 7.143765687942504883e-02
-3.829709589481353760e-01 8.128300309181213379e-02 2.637523040175437927e-02
4.671941995620727539e-01 2.847752533853054047e-02 2.604186832904815674e-01
1.894527226686477661e-01 -2.899250388145446777e-02 -2.822051346302032471e-01
9.211553931236267090e-01 -3.509673848748207092e-02 1.988293044269084930e-02
-4.071636795997619629e-01 -8.080981671810150146e-02 -1.035263529047369957e-03
6.989657878875732422e-01 -6.203280389308929443e-02 8.132790029048919678e-02
1.723888963460922241e-01 6.515052914619445801e-02 -1.835951805114746094e-01
5.926692485809326172e-01 2.280928194522857666e-02 2.422762066125869751e-01
-3.078069388866424561e-01 8.292909711599349976e-02 4.636374488472938538e-02
-8.651815652847290039e-01 -9.377170354127883911e-03 -1.567572802305221558e-01
5.255239605903625488e-01 6.684652715921401978e-02 1.087167635560035706e-01
1.874033808708190918e-01 -6.693597137928009033e-02 2.022423595190048218e-01
-5.542045831680297852e-02 7.251291722059249878e-02 1.771974116563796997e-01
1.358377635478973389e-01 1.524165365844964981e-02 3.059696257114410400e-01
-2.901221215724945068e-01 -6.954457610845565796e-02 -1.748399883508682251e-01
-1.664299666881561279e-01 -7.055676728487014771e-02 1.796105802059173584e-01
-2.312359064817428589e-01 1.117028295993804932e-03 -2.994913458824157715e-01
5.449704527854919434e-01 4.981241375207901001e-02 -1.640913635492324829e-01
5.078601837158203125e-01 -7.824511826038360596e-02 -9.615345858037471771e-03
-3.681388199329376221e-01 5.881517380475997925e-02 -1.978020220994949341e-01
-1.580254435539245605e-01 6.895454227924346924e-02 -1.777197867631912231e-01
8.133705258369445801e-01 1.813176320865750313e-03 1.878910660743713379e-01
-5.680947899818420410e-01 -7.221703976392745972e-02 -5.418411456048488617e-05
1.924263387918472290e-01 8.110164105892181396e-02 -7.602243870496749878e-02
4.533474743366241455e-01 7.565227150917053223e-02 6.211600266396999359e-04
-3.808222711086273193e-01 -3.455640003085136414e-02 2.547956109046936035e-01
4.368075430393218994e-01 7.607666403055191040e-02 4.505872726440429688e-02
-1.098360940814018250e-01 -8.827761560678482056e-02 3.198240697383880615e-02
1.013576090335845947e-01 -8.865314722061157227e-02 -4.165074974298477173e-02
-6.419165432453155518e-02 7.231383025646209717e-02 1.779626160860061646e-01
7.781984210014343262e-01 -5.546571686863899231e-02 6.432665884494781494e-02
5.070467591285705566e-01 -4.261597245931625366e-02 2.328153848648071289e-01
2.188359498977661133e-01 8.418077230453491211e-02 2.006858028471469879e-02
3.505516648292541504e-01 2.930372767150402069e-02 -2.551501989364624023e-01
7.804213762283325195e-01 4.906443133950233459e-02 -2.059750631451606750e-02
1.478165984153747559e-01 -2.613957040011882782e-02 2.967349886894226074e-01
-8.973549604415893555e-01 3.824549540877342224e-02 -4.061480239033699036e-02
1.720567345619201660e-01 -8.626055717468261719e-02 7.340519130229949951e-02
-5.257036685943603516e-01 -5.974999442696571350e-02 -1.649897098541259766e-01
-4.091110825538635254e-01 7.913310080766677856e-02 -5.141793936491012573e-02
4.790470600128173828e-01 -7.963392138481140137e-02 2.378428727388381958e-02
1.222314834594726562e-01 -8.493573218584060669e-02 9.585650265216827393e-02
-3.438838720321655273e-01 6.760594248771667480e-02 -1.641808748245239258e-01
1.166954934597015381e-01 4.195817932486534119e-02 2.734389603137969971e-01
2.393175959587097168e-01 2.990855276584625244e-02 2.862363457679748535e-01
-6.772694587707519531e-01 -4.271275177597999573e-02 -1.763293296098709106e-01
-7.154855728149414062e-01 6.227340176701545715e-02 -1.282379124313592911e-02
-1.720597594976425171e-01 7.710353285074234009e-02 -1.305731087923049927e-01
-7.331281304359436035e-01 -3.254638612270355225e-02 1.641098707914352417e-01
8.698993325233459473e-01 2.992634847760200500e-02 -6.486519426107406616e-02
-2.235127389430999756e-01 8.406277745962142944e-02 -5.132637545466423035e-02
8.016544580459594727e-01 -5.297263711690902710e-02 -3.566981479525566101e-02
2.491442859172821045e-01 6.261313706636428833e-02 -1.838751733303070068e-01
9.579983949661254883e-01 1.003964617848396301e-02 6.922959536314010620e-02
-1.324837952852249146e-01 -7.805229723453521729e-02 1.422351449728012085e-01
5.643770098686218262e-01 1.484104152768850327e-02 2.571911513805389404e-01
1.553481072187423706e-01 -8.082264661788940430e-02 -1.271191984415054321e-01
-4.044967293739318848e-01 4.820521548390388489e-02 2.269212603569030762e-01
-1.091968938708305359e-01 8.476835489273071289e-02 7.540121674537658691e-02
5.732648372650146484e-01 -7.467456907033920288e-02 1.595684513449668884e-02
1.458232849836349487e-01 -8.057455718517303467e-02 -1.299766898155212402e-01
9.198339283466339111e-02 -8.948413282632827759e-02 9.444825351238250732e-03
4.621074721217155457e-02 6.150120869278907776e-02 2.240603119134902954e-01
4.768513143062591553e-01 -7.989369332790374756e-02 1.164923189207911491e-03
2.687158994376659393e-02 -8.398687094449996948e-02 1.082883998751640320e-01
6.737334132194519043e-01 -3.108040243387222290e-02 2.139499485492706299e-01
-3.423865437507629395e-01 -8.321912586688995361e-02 -2.272827550768852234e-02
-7.874674797058105469e-01 -4.671246558427810669e-02 7.779031991958618164e-02
1.917585879564285278e-01 1.632257178425788879e-02 3.028746843338012695e-01
-4.057990014553070068e-01 8.071607351303100586e-02 -5.697680637240409851e-03
-3.371402025222778320e-01 6.361610442399978638e-02 1.888174116611480713e-01
4.173270761966705322e-01 -8.144377917051315308e-02 -3.936288505792617798e-02
8.333395719528198242e-01 -5.049773305654525757e-02 2.830445207655429840e-02
-3.008530139923095703e-01 8.373205363750457764e-02 -1.819328777492046356e-02
7.519789934158325195e-01 -8.715157397091388702e-03 2.118401080369949341e-01
-6.061977148056030273e-01 -6.960014998912811279e-02 1.412415178492665291e-03
-5.025403946638107300e-02 8.715834468603134155e-02 1.772006973624229431e-02
-2.603951692581176758e-01 8.441223204135894775e-02 3.709728270769119263e-02
1.760311722755432129e-01 7.217039167881011963e-02 1.697975993156433105e-01
-2.054660320281982422e-01 -4.245745390653610229e-02 -2.660157382488250732e-01
-9.192812442779541016e-02 7.354386150836944580e-02 1.702791899442672729e-01
2.666006684303283691e-01 8.293632417917251587e-02 2.065832354128360748e-02
-7.934898138046264648e-01 4.751860722899436951e-02 -9.651210159063339233e-02
-5.058088302612304688e-01 5.554495379328727722e-02 -1.831388920545578003e-01
-6.457745432853698730e-01 -2.287830971181392670e-02 2.130023241043090820e-01
8.931165337562561035e-01 2.709994092583656311e-02 8.946460485458374023e-02
8.823931217193603516e-01 -5.288650281727313995e-03 -1.200798451900482178e-01
2.461952865123748779e-01 7.579638622701168060e-03 -2.884904146194458008e-01
3.095403015613555908e-01 8.163578808307647705e-02 1.883300580084323883e-02
-7.522791624069213867e-01 5.610555037856101990e-02 -6.532080471515655518e-02
-4.017023444175720215e-01 -6.087086349725723267e-02 1.808532923460006714e-01
-4.872961938381195068e-01 7.190220057964324951e-02 -9.836149960756301880e-02
-8.391074538230895996e-01 -1.488545630127191544e-02 1.464751958847045898e-01
-3.761878013610839844e-01 7.689684629440307617e-02 -9.435833245515823364e-02
2.011485844850540161e-01 -7.135674357414245605e-02 -1.769464313983917236e-01
4.538312852382659912e-01 -5.259286984801292419e-02 2.175277024507522583e-01
-7.305696010589599609e-01 -5.493024736642837524e-02 6.724464148283004761e-02
-7.926095724105834961e-01 6.781376898288726807e-03 1.779743432998657227e-01
4.837363660335540771e-01 4.158652573823928833e-02 2.323282361030578613e-01
-4.874272644519805908e-01 -5.995533615350723267e-02 -1.754667311906814575e-01
7.431764602661132812e-01 -2.352353744208812714e-02 -1.760961413383483887e-01
1.039805561304092407e-01 -7.218498736619949341e-02 -1.813538670539855957e-01
-1.976992487907409668e-01 -2.920334786176681519e-02 2.846473455429077148e-01
5.022128224372863770e-01 -1.140457857400178909e-02 -2.525860071182250977e-01
-2.429752796888351440e-02 -8.128392696380615234e-02 -1.317960023880004883e-01
6.724212169647216797e-01 -6.037769094109535217e-02 -9.413539618253707886e-02
2.020917981863021851e-01 -3.384125977754592896e-02 -2.753414213657379150e-01
7.059835195541381836e-01 2.742676809430122375e-02 -1.700108945369720459e-01
1.465054452419281006e-01 6.792926043272018433e-02 -1.741171032190322876e-01
-9.039840102195739746e-01 3.523701056838035583e-02 4.352560266852378845e-02
7.111325860023498535e-02 5.119853839278221130e-02 -2.386017590761184692e-01
8.001024723052978516e-01 -3.194666281342506409e-02 1.630611121654510498e-01
4.291834533214569092e-01 5.539281293749809265e-02 -1.763376891613006592e-01
2.289104834198951721e-02 7.664435356855392456e-02 -1.363891512155532837e-01
-8.308576345443725586e-01 4.981549456715583801e-02 -6.759284995496273041e-03
-7.171308994293212891e-02 6.944944709539413452e-02 1.916179060935974121e-01
-5.002146363258361816e-01 5.313898995518684387e-02 1.923049539327621460e-01
-1.460315585136413574e-01 8.358935266733169556e-02 -7.366396486759185791e-02
8.604497909545898438e-01 2.666316553950309753e-02 -8.733440935611724854e-02
4.342154264450073242e-01 7.442329078912734985e-02 -5.107050761580467224e-02
5.072020888328552246e-01 6.728782504796981812e-02 -8.451803773641586304e-02
-1.530349999666213989e-01 7.408909499645233154e-02 1.630014330148696899e-01
2.717947959899902344e-01 -6.407558172941207886e-02 2.060367614030838013e-01
2.477242052555084229e-01 -7.018793374300003052e-02 -1.765203624963760376e-01
9.027121067047119141e-01 -6.054164841771125793e-03 1.390060633420944214e-01
-3.323461115360260010e-01 -4.568022862076759338e-02 2.402399033308029175e-01
1.450765728950500488e-01 6.589646637439727783e-02 -1.833759099245071411e-01
1.374552994966506958e-01 6.996914744377136230e-02 1.849789619445800781e-01
-1.504941582679748535e-01 8.618380874395370483e-02 3.725779429078102112e-02
-8.472753167152404785e-01 4.755894467234611511e-02 -7.209029980003833771e-03
-5.400273203849792480e-01 -5.333039164543151855e-02 1.721881777048110962e-01
-4.137153923511505127e-01 -7.563821226358413696e-02 8.978128433227539062e-02
-6.539710760116577148e-01 -5.369971692562103271e-02 -1.436169445514678955e-01
7.036729454994201660e-01 -1.794301532208919525e-02 2.219364494085311890e-01
-4.062772691249847412e-01 1.417026948183774948e-02 -2.785614728927612305e-01
-7.190457582473754883e-01 4.878421127796173096e-02 -1.362410783767700195e-01
-3.802594840526580811e-01 -6.286371499300003052e-02 1.775607615709304810e-01
-6.646611690521240234e-01 3.096007928252220154e-02 1.998805701732635498e-01
-1.139268353581428528e-01 -8.728346973657608032e-02 -5.973239243030548096e-02
1.703451126813888550e-01 -7.861954718828201294e-02 1.438905298709869385e-01
3.924146592617034912e-01 7.630097121000289917e-02 -5.212181061506271362e-02
-5.686380341649055481e-02 -7.356809079647064209e-02 1.744019538164138794e-01
-3.637259900569915771e-01 8.079256117343902588e-02 5.597462877631187439e-02
-8.394403457641601562e-01 -4.195601120591163635e-02 5.771362408995628357e-02
-3.720766305923461914e-01 -6.892016530036926270e-02 -1.620516180992126465e-01
-7.169972062110900879e-01 -5.734950304031372070e-02 -7.764823734760284424e-02
-2.141853868961334229e-01 -8.588515222072601318e-02 -5.350448191165924072e-02
8.934788107872009277e-01 -3.961664810776710510e-02 4.882926121354103088e-02
5.773889422416687012e-01 -6.519261002540588379e-02 1.309931725263595581e-01
-3.202666640281677246e-01 2.953320369124412537e-02 2.738071084022521973e-01
1.600808501243591309e-01 -8.887665718793869019e-02 1.006912160664796829e-02
2.410341501235961914e-01 6.342726200819015503e-02 2.037266492843627930e-01
-4.722489416599273682e-02 -8.786337822675704956e-02 5.613286048173904419e-02
6.622479557991027832e-01 -6.833951920270919800e-02 -7.615321315824985504e-03
-6.363956332206726074e-01 1.845683157444000244e-02 2.245172709226608276e-01
8.010803461074829102e-01 4.645326733589172363e-02 5.657804012298583984e-02
-5.565246939659118652e-01 3.565906733274459839e-02 -2.264965027570724487e-01
1.648743003606796265e-01 -8.702243119478225708e-02 6.302024424076080322e-02
