-1.926806271076202393e-01 1.483120322227478027e-01 4.847622290253639221e-02
4.167655110359191895e-02 -1.082935705780982971e-01 -3.234599828720092773e-01
2.606102228164672852e-01 1.029863134026527405e-01 3.976665902882814407e-04
1.913981586694717407e-01 -1.043001860380172729e-01 -3.668093085289001465e-01
-5.958902835845947266e-01 -1.263025309890508652e-02 2.065116614103317261e-01
-4.241373836994171143e-01 1.513630747795104980e-01 3.484245762228965759e-02
-4.170792102813720703e-01 1.491467654705047607e-01 9.724093973636627197e-02
-4.262111485004425049e-01 4.081126675009727478e-02 -4.064688980579376221e-01
-9.140326827764511108e-02 -1.283656060695648193e-01 -2.384397573769092560e-02
-3.562686741352081299e-01 1.423234343528747559e-01 1.851561665534973145e-01
6.729012131690979004e-01 -1.159129217267036438e-01 -1.275097578763961792e-01
6.467746496200561523e-01 -1.103999912738800049e-01 1.808452010154724121e-01
-5.379783511161804199e-01 2.047204039990901947e-02 3.472342491149902344e-01
1.538477838039398193e-01 6.671117246150970459e-02 -3.820312023162841797e-01
3.106715977191925049e-01 -1.542470753192901611e-01 -8.361160755157470703e-03
-5.595766305923461914e-01 -3.162496164441108704e-02 -1.554629206657409668e-01
4.554278254508972168e-01 6.560876965522766113e-02 -3.198125585913658142e-02
6.830658912658691406e-01 -1.230661496520042419e-01 -1.698150299489498138e-03
4.055845737457275391e-02 1.282261759042739868e-01 1.115345358848571777e-01
1.211253926157951355e-01 -7.699267566204071045e-02 -4.299255013465881348e-01
5.014885067939758301e-01 -1.298491358757019043e-01 2.169196754693984985e-01
-1.327969133853912354e-01 -9.872514754533767700e-02 2.872304916381835938e-01
-1.083328425884246826e-01 -1.199506446719169617e-01 1.551012694835662842e-01
5.231775641441345215e-01 -9.847353398799896240e-02 3.087501227855682373e-01
4.601801037788391113e-01 -8.415855467319488525e-02 3.637998402118682861e-01
2.503693699836730957e-01 -5.690421909093856812e-02 -4.538405835628509521e-01
1.618473678827285767e-01 8.849930763244628906e-02 3.039321303367614746e-01
-4.805984795093536377e-01 1.489893198013305664e-01 -2.357205376029014587e-02
6.193414926528930664e-01 1.036942284554243088e-02 -1.426424086093902588e-01
-5.619360804557800293e-01 7.988698035478591919e-02 -3.116682469844818115e-01
7.010560035705566406e-01 -8.583220094442367554e-02 1.694343388080596924e-01
4.282030463218688965e-02 -1.127531230449676514e-01 3.064740896224975586e-01
4.463623166084289551e-01 6.694906204938888550e-02 5.503433570265769958e-02
-5.038827657699584961e-01 -5.109286867082118988e-03 -3.199875652790069580e-01
1.615518331527709961e-01 -1.468504816293716431e-01 9.569354355335235596e-02
4.247198104858398438e-01 7.258573919534683228e-02 -2.078670077025890350e-02
-9.825190901756286621e-02 1.350670605897903442e-01 -1.648159027099609375e-01
3.417128920555114746e-01 8.915597945451736450e-02 -4.867804236710071564e-03
-4.607315957546234131e-01 1.242005825042724609e-01 -2.496685087680816650e-01
-2.298616319894790649e-01 -1.053153574466705322e-01 -1.295846402645111084e-01
5.663942694664001465e-01 -1.193013936281204224e-01 2.225767970085144043e-01
-3.845139741897583008e-01 -4.977693781256675720e-02 -2.979188263416290283e-01
6.235158443450927734e-01 -9.196657687425613403e-02 -2.583747506141662598e-01
1.507530212402343750e-01 1.160327643156051636e-01 1.002956628799438477e-01
5.060917735099792480e-01 5.308224633336067200e-02 4.272070154547691345e-02
-3.936411142349243164e-01 -8.834025822579860687e-03 4.025322794914245605e-01
3.826165795326232910e-01 6.771282106637954712e-02 -2.002643495798110962e-01
-4.749170541763305664e-01 1.387519389390945435e-01 -1.628785729408264160e-01
-5.092984437942504883e-01 -5.632906779646873474e-02 2.736434154212474823e-02
1.710046529769897461e-01 9.357691556215286255e-02 -2.670324444770812988e-01
-4.347670078277587891e-01 -7.060966640710830688e-02 -9.151506423950195312e-02
-5.398567020893096924e-02 -1.190836951136589050e-01 -2.136541008949279785e-01
-3.527391850948333740e-01 1.437357515096664429e-01 1.732341498136520386e-01
1.594202518463134766e-01 5.182217061519622803e-02 -4.168611764907836914e-01
4.650010764598846436e-01 -1.411616057157516479e-01 1.662683933973312378e-01
-1.453479528427124023e-01 5.115909129381179810e-02 -4.629908204078674316e-01
2.166319638490676880e-02 -1.366711258888244629e-01 1.067833155393600464e-01
-3.618188798427581787e-01 9.009103477001190186e-02 -3.775115311145782471e-01
-5.006558895111083984e-01 -2.852001599967479706e-02 2.726427614688873291e-01
-2.516215741634368896e-01 1.507882326841354370e-01 -2.335986308753490448e-02
-1.231486052274703979e-01 -1.234492659568786621e-01 -6.810902059078216553e-02
3.039151430130004883e-01 -1.491051018238067627e-01 -1.299736499786376953e-01
-2.056430578231811523e-01 1.390046030282974243e-01 -1.803743541240692139e-01
2.608194947242736816e-01 -1.528132259845733643e-01 4.167433083057403564e-02
6.944298744201660156e-02 1.284017264842987061e-01 7.305811624974012375e-03
5.744188427925109863e-01 -5.731203779578208923e-02 3.209439218044281006e-01
-7.632016539573669434e-01 6.185442209243774414e-02 1.901191473007202148e-02
-3.450513482093811035e-01 -1.744053140282630920e-02 4.146380126476287842e-01
-5.916699767112731934e-01 -2.960665151476860046e-02 -8.604103326797485352e-02
-1.463284529745578766e-02 7.575571537017822266e-02 4.182587563991546631e-01
-4.890128225088119507e-02 -1.314713507890701294e-01 7.906527817249298096e-02
1.246663108468055725e-01 -6.835818290710449219e-02 4.476705789566040039e-01
2.033314555883407593e-01 9.713433682918548584e-02 -2.160976231098175049e-01
5.262253880500793457e-01 -1.328883767127990723e-01 1.858153641223907471e-01
1.766564790159463882e-03 1.100956872105598450e-01 2.918587327003479004e-01
1.069266498088836670e-01 7.294562458992004395e-02 3.886185288429260254e-01
-4.058026373386383057e-01 -7.163274288177490234e-02 -1.510160416364669800e-01
5.581603646278381348e-01 2.467729151248931885e-02 1.822355240583419800e-01
1.963478513062000275e-02 1.132251620292663574e-01 2.650848031044006348e-01
5.942949652671813965e-01 2.626326866447925568e-02 7.261320948600769043e-02
-2.870137989521026611e-01 -1.010982617735862732e-01 -3.857183456420898438e-02
-2.267943769693374634e-01 4.357678070664405823e-02 -4.622136950492858887e-01
3.345983922481536865e-01 -8.842753618955612183e-02 3.946021795272827148e-01
-4.970472753047943115e-01 8.931315690279006958e-02 -3.333077728748321533e-01
2.738557159900665283e-01 6.643487513065338135e-02 -3.157626390457153320e-01
4.132315516471862793e-01 6.056978553533554077e-02 -2.036018073558807373e-01
-1.950543522834777832e-01 -9.281463921070098877e-02 -2.664138078689575195e-01
3.454315364360809326e-01 3.962374478578567505e-02 3.549334704875946045e-01
3.073122203350067139e-01 -7.644598186016082764e-02 4.201587736606597900e-01
-8.506837487220764160e-02 1.231955289840698242e-01 -2.487444579601287842e-01
3.148297071456909180e-01 -1.525704562664031982e-01 -7.692959904670715332e-02
2.401493340730667114e-01 7.869016379117965698e-02 2.921233177185058594e-01
6.256275177001953125e-01 -1.327283829450607300e-01 7.286596298217773438e-02
6.465631127357482910e-01 -1.249619200825691223e-01 1.064907014369964600e-01
3.777546584606170654e-01 7.130611687898635864e-02 1.820951998233795166e-01
-3.186007961630821228e-02 -1.774206757545471191e-02 -4.892561137676239014e-01
-1.324684619903564453e-01 9.314599633216857910e-02 3.935651779174804688e-01
1.039442121982574463e-01 -1.402621567249298096e-01 -1.424244642257690430e-01
4.767311811447143555e-01 -1.402969062328338623e-01 1.667765974998474121e-01
-4.420012533664703369e-01 1.238897517323493958e-01 -2.575512826442718506e-01
-2.120816707611083984e-01 9.345949441194534302e-02 3.982551395893096924e-01
-3.309070765972137451e-01 1.050799787044525146e-01 -3.469936251640319824e-01
5.147508978843688965e-01 -1.483081281185150146e-01 -3.348235040903091431e-02
4.466647207736968994e-01 -1.295797228813171387e-01 -2.475565969944000244e-01
6.013006716966629028e-02 -1.077224090695381165e-01 3.338174223899841309e-01
-1.005073636770248413e-01 1.430165022611618042e-01 -3.739538416266441345e-02
6.597459316253662109e-01 -1.263946890830993652e-01 -7.141189277172088623e-02
-3.055882267653942108e-02 -1.060279905796051025e-01 3.080724775791168213e-01
1.945200115442276001e-01 -1.498760432004928589e-01 6.354584544897079468e-02
-4.804462492465972900e-01 1.488924175500869751e-01 4.555470123887062073e-02
2.044605761766433716e-01 -1.211357861757278442e-01 -3.062643408775329590e-01
4.582278728485107422e-01 6.384038925170898438e-02 -6.539319455623626709e-02
-6.809493303298950195e-01 9.368637204170227051e-02 -1.834799349308013916e-01
5.007215589284896851e-02 -1.418322771787643433e-01 3.408375382423400879e-02
-3.321082293987274170e-01 -3.885301947593688965e-02 -3.685758411884307861e-01
-2.944536209106445312e-01 -9.361261129379272461e-02 -1.445203423500061035e-01
-5.912356823682785034e-02 -1.300559639930725098e-01 -8.316999673843383789e-02
-4.136355966329574585e-02 1.245127469301223755e-01 2.278605252504348755e-01
-1.957168579101562500e-01 -1.126695498824119568e-01 -9.487102925777435303e-02
-7.866416126489639282e-02 1.319433748722076416e-01 -1.814833432435989380e-01
5.353470444679260254e-01 -1.329546421766281128e-01 1.790957003831863403e-01
1.965394467115402222e-01 4.844579473137855530e-02 4.136879742145538330e-01
-5.059998631477355957e-01 -2.314448170363903046e-02 2.854266166687011719e-01
-1.613711714744567871e-01 -8.985714614391326904e-02 3.114352226257324219e-01
-2.001954764127731323e-01 1.244262009859085083e-01 -2.740143835544586182e-01
1.585617214441299438e-01 1.165502369403839111e-01 -6.124309077858924866e-02
-4.308705925941467285e-01 -7.293461263179779053e-02 -6.601786613464355469e-02
-4.508675038814544678e-01 -7.030136883258819580e-02 2.044579479843378067e-03
-5.443396419286727905e-02 4.131455346941947937e-02 4.811478257179260254e-01
4.054149985313415527e-01 3.249209001660346985e-02 3.304870724678039551e-01
2.344441860914230347e-01 -1.525389850139617920e-01 -1.357387751340866089e-02
-5.745438337326049805e-01 1.064814105629920959e-01 2.701641321182250977e-01
-8.515992760658264160e-02 -1.221063267439603806e-02 4.934541583061218262e-01
-3.765400648117065430e-01 1.389736086130142212e-01 -1.925804466009140015e-01
-5.837201140820980072e-03 -1.359979659318923950e-01 -6.815150380134582520e-02
1.191015988588333130e-01 -1.413100808858871460e-01 -1.415016949176788330e-01
4.038181304931640625e-01 9.181367233395576477e-03 3.826434612274169922e-01
-2.802289426326751709e-01 1.234640553593635559e-01 2.983435094356536865e-01
1.968850195407867432e-01 -1.493918299674987793e-01 7.773996889591217041e-02
-4.064249694347381592e-01 -2.094500884413719177e-02 3.735533356666564941e-01
-3.428646326065063477e-01 -3.457830101251602173e-02 -3.720543086528778076e-01
3.127656280994415283e-01 8.436633646488189697e-02 1.787415146827697754e-01
3.111378848552703857e-01 7.361755520105361938e-02 -2.508949935436248779e-01
-3.940267860889434814e-01 -7.845913618803024292e-02 1.134574264287948608e-01
-3.372975587844848633e-01 1.452919989824295044e-01 -1.438458710908889771e-01
-7.602966427803039551e-01 8.267693966627120972e-02 1.321649178862571716e-02
2.378367185592651367e-01 -1.475038975477218628e-01 1.312984824180603027e-01
-6.523273587226867676e-01 2.262646332383155823e-02 2.330242842435836792e-01
-5.552195310592651367e-01 9.313013404607772827e-03 -3.014068901538848877e-01
-1.006273925304412842e-01 9.758396446704864502e-02 3.752938807010650635e-01
6.170644760131835938e-01 -1.337895989418029785e-01 7.856225967407226562e-02
4.041086137294769287e-02 1.308990865945816040e-01 4.959143698215484619e-02
-2.597029209136962891e-01 -1.555237546563148499e-02 4.523805677890777588e-01
3.881270885467529297e-01 -1.539101731032133102e-02 -4.202444851398468018e-01
-2.197797894477844238e-01 -1.108450517058372498e-01 6.747944653034210205e-02
7.022079229354858398e-01 -1.086589172482490540e-01 9.780468046665191650e-02
8.841344714164733887e-02 5.583028867840766907e-02 4.359871447086334229e-01
1.049744412302970886e-01 1.054446026682853699e-01 2.545342147350311279e-01
2.582369446754455566e-01 1.033189594745635986e-01 -1.022335048764944077e-02
-1.675014346837997437e-01 5.124289169907569885e-02 4.717111885547637939e-01
-5.135248899459838867e-01 1.180686056613922119e-01 -2.507585883140563965e-01
-1.316923052072525024e-01 -6.010754033923149109e-02 4.201698601245880127e-01
-3.258623480796813965e-01 -7.500525563955307007e-02 -2.410174459218978882e-01
-6.319679617881774902e-01 1.329766511917114258e-01 5.217858776450157166e-02
4.158897697925567627e-02 8.652395755052566528e-02 3.717031180858612061e-01
-1.894752681255340576e-02 1.223927438259124756e-01 -2.202369719743728638e-01
-6.080803275108337402e-01 1.368547081947326660e-01 5.011858418583869934e-02
-1.040406227111816406e-01 -1.267940104007720947e-01 -3.129252046346664429e-02
1.820368617773056030e-01 2.399108186364173889e-02 -4.562670588493347168e-01
3.325327336788177490e-01 2.146853506565093994e-02 4.024737477302551270e-01
4.307206720113754272e-02 -3.729779273271560669e-02 4.848045706748962402e-01
-1.083224341273307800e-01 1.440402120351791382e-01 1.357402559369802475e-02
-7.134193181991577148e-01 9.029290825128555298e-02 -1.417329460382461548e-01
8.989142626523971558e-02 -1.437830626964569092e-01 6.925845146179199219e-02
5.309901237487792969e-01 -9.231269359588623047e-02 3.163634240627288818e-01
-1.776830703020095825e-01 2.394580049440264702e-03 -4.776947498321533203e-01
6.259340792894363403e-02 -7.500237971544265747e-02 -4.279905855655670166e-01
-1.490037292242050171e-01 -9.225328266620635986e-02 3.082481920719146729e-01
9.891682118177413940e-02 -8.763334155082702637e-02 4.058188796043395996e-01
-4.449763298034667969e-01 -6.666004657745361328e-02 1.255127787590026855e-01
-4.844724833965301514e-01 8.029386401176452637e-02 3.692897260189056396e-01
1.797270029783248901e-02 -9.027906507253646851e-02 -3.806194067001342773e-01
-6.710571050643920898e-01 1.649277098476886749e-02 1.860560029745101929e-01
6.264775395393371582e-01 8.853382430970668793e-03 -1.343924254179000854e-01
-6.137349605560302734e-01 1.081731244921684265e-01 -2.163932174444198608e-01
1.985350102186203003e-01 -1.495964974164962769e-01 -7.594200968742370605e-02
4.359257966279983521e-02 9.784916788339614868e-02 -3.215414583683013916e-01
-2.492095381021499634e-01 -9.076930582523345947e-02 2.365606129169464111e-01
-3.890245854854583740e-01 -7.739957422018051147e-02 1.390792578458786011e-01
-2.208296805620193481e-01 -4.671986773610115051e-02 -4.080400466918945312e-01
-1.886857748031616211e-01 9.181860834360122681e-02 -3.904970884323120117e-01
-5.181943774223327637e-01 -3.844539076089859009e-02 -1.900351941585540771e-01
-1.658782362937927246e-01 -1.136914640665054321e-01 1.445121020078659058e-01
3.329478502273559570e-01 1.354991691187024117e-03 4.297517240047454834e-01
5.591791272163391113e-01 -1.001712679862976074e-01 2.838751077651977539e-01
-3.440104126930236816e-01 4.697417840361595154e-02 4.472919106483459473e-01
5.541084408760070801e-01 1.560493186116218567e-02 2.304490506649017334e-01
1.869477331638336182e-01 1.111854612827301025e-01 9.957785904407501221e-02
-1.948089599609375000e-01 1.224931478500366211e-01 2.948734462261199951e-01
4.682690650224685669e-02 -1.959604211151599884e-02 4.961373507976531982e-01
6.351613402366638184e-01 -1.317791640758514404e-02 2.088436484336853027e-01
4.196241497993469238e-01 -1.071659028530120850e-01 -3.352159857749938965e-01
1.549166589975357056e-01 -1.246751844882965088e-01 2.806974053382873535e-01
-1.672584861516952515e-01 -1.076370775699615479e-01 -1.955375969409942627e-01
7.218340039253234863e-01 -3.975317254662513733e-02 -1.162433326244354248e-01
-1.742439419031143188e-01 1.145011782646179199e-01 3.270844519138336182e-01
-1.504003554582595825e-01 1.339366286993026733e-01 -2.017833590507507324e-01
5.209073424339294434e-01 4.971910640597343445e-02 2.458204329013824463e-02
1.868166476488113403e-01 8.043465763330459595e-02 -3.181734085083007812e-01
3.991767466068267822e-01 -1.431628912687301636e-01 1.751453727483749390e-01
6.228896975517272949e-01 -1.313619911670684814e-01 9.372156858444213867e-02
-1.880125701427459717e-01 -3.805813938379287720e-02 -4.366111457347869873e-01
-1.571977734565734863e-01 -7.555430382490158081e-02 3.680400550365447998e-01
7.496581077575683594e-01 -5.459959805011749268e-02 -5.017231032252311707e-02
6.383526325225830078e-01 -5.184083804488182068e-02 -2.693971395492553711e-01
3.638286888599395752e-01 4.905589297413825989e-02 -3.112778365612030029e-01
-1.059401929378509521e-01 1.267310827970504761e-01 2.456081658601760864e-01
-3.526111245155334473e-01 1.492288112640380859e-01 1.107547283172607422e-01
3.701245784759521484e-01 5.198097601532936096e-02 -2.949208319187164307e-01
6.281377077102661133e-01 -3.062311559915542603e-03 1.864745765924453735e-01
-2.381964921951293945e-01 1.473828405141830444e-01 1.118296980857849121e-01
-3.512469232082366943e-01 1.386181563138961792e-01 -1.983007341623306274e-01
4.347765445709228516e-01 -1.248802095651626587e-01 -2.720595598220825195e-01
2.774554193019866943e-01 -1.456507891416549683e-01 1.611548960208892822e-01
3.045395947992801666e-02 -1.315537393093109131e-01 -1.763154864311218262e-01
6.708291769027709961e-01 -2.034780383110046387e-02 -1.746846437454223633e-01
7.494832277297973633e-01 -8.476680517196655273e-02 4.591513797640800476e-02
-1.134638562798500061e-01 -3.248619288206100464e-02 -4.649013280868530273e-01
-4.225460886955261230e-01 -7.642755657434463501e-02 1.008497923612594604e-02
-2.646594047546386719e-01 1.503807604312896729e-01 6.637594103813171387e-02
4.774075448513031006e-01 -8.056610822677612305e-02 3.613207340240478516e-01
-3.488518297672271729e-01 1.386697143316268921e-01 2.133197337388992310e-01
3.508853912353515625e-01 -9.727139770984649658e-02 3.728796839714050293e-01
5.155937671661376953e-01 -1.435157209634780884e-01 1.111424714326858521e-01
7.845033705234527588e-02 -2.268599160015583038e-02 -4.900964796543121338e-01
-3.786417245864868164e-01 1.470498442649841309e-01 -1.208423227071762085e-01
-1.800980418920516968e-01 1.387525051832199097e-01 -1.733330935239791870e-01
5.953938961029052734e-01 -1.796041382476687431e-03 -2.380224317312240601e-01
-5.118618607521057129e-01 1.472288519144058228e-01 -1.587252691388130188e-02
3.117555081844329834e-01 -1.337011754512786865e-01 2.480883896350860596e-01
-3.011572062969207764e-01 1.416243463754653931e-01 -1.765046417713165283e-01
-6.307991743087768555e-01 1.120749413967132568e-01 2.063671052455902100e-01
-1.356229484081268311e-01 8.535527437925338745e-02 -4.039099216461181641e-01
6.979190111160278320e-01 -1.224535424262285233e-02 -8.620540611445903778e-03
5.875266194343566895e-01 -1.402952820062637329e-01 4.556513205170631409e-02
3.995870351791381836e-01 -3.472534567117691040e-02 -4.230770170688629150e-01
-2.067645788192749023e-01 1.264847069978713989e-01 -2.643223106861114502e-01
5.699139237403869629e-01 -4.940395057201385498e-02 3.243428766727447510e-01
-5.891006439924240112e-03 -1.318463832139968872e-01 1.409505158662796021e-01
-4.421223700046539307e-01 -5.243610590696334839e-02 -2.250091135501861572e-01
7.519521713256835938e-01 -7.300128787755966187e-02 5.645368248224258423e-02
3.779084235429763794e-02 1.263003498315811157e-01 1.429460197687149048e-01
-6.528776884078979492e-01 5.456177517771720886e-02 -2.495550811290740967e-01
-5.034263730049133301e-01 7.582449913024902344e-02 -3.497247397899627686e-01
4.685018062591552734e-01 -6.687540560960769653e-02 3.797219097614288330e-01
2.116034552454948425e-02 -1.362299323081970215e-01 -1.110762357711791992e-01
5.026848912239074707e-01 -1.477383673191070557e-01 6.569588184356689453e-02
-1.706076115369796753e-01 -8.271973580121994019e-02 3.357177376747131348e-01
4.777084887027740479e-01 5.989358201622962952e-02 -5.007018521428108215e-02
1.659992635250091553e-01 7.757621258497238159e-02 3.459096848964691162e-01
-4.347745180130004883e-01 1.054665744304656982e-01 3.380106091499328613e-01
-5.734458565711975098e-01 5.108908563852310181e-02 -3.210849761962890625e-01
1.970937997102737427e-01 1.124399229884147644e-01 -9.287941269576549530e-03
2.825302444398403168e-02 1.296675950288772583e-01 1.083424389362335205e-01
-7.490435242652893066e-01 8.184965699911117554e-02 -7.419452071189880371e-02
5.219634175300598145e-01 2.305738627910614014e-02 2.444620728492736816e-01
-6.087906360626220703e-01 -1.126224827021360397e-02 -1.739413291215896606e-01
-1.916084438562393188e-01 6.754416972398757935e-02 -4.393208026885986328e-01
4.547398090362548828e-01 1.826944388449192047e-02 3.279522359371185303e-01
6.334657780826091766e-03 9.394288063049316406e-02 -3.510049581527709961e-01
-7.014025002717971802e-03 1.044374108314514160e-01 -3.141581714153289795e-01
-4.037722647190093994e-01 -6.638007611036300659e-02 -1.952833384275436401e-01
-6.677585840225219727e-01 1.171620711684226990e-01 1.355382651090621948e-01
-1.655889600515365601e-01 1.359287053346633911e-01 2.038036286830902100e-01
-9.341191034764051437e-04 1.193895563483238220e-01 2.386918962001800537e-01
-2.462814450263977051e-01 1.408304572105407715e-01 -1.755430698394775391e-01
7.412248104810714722e-02 -8.028228580951690674e-02 -4.180732667446136475e-01
-7.617042064666748047e-01 7.849700748920440674e-02 3.178048133850097656e-02
1.770373433828353882e-02 -1.379911750555038452e-01 7.357431948184967041e-02
-3.598311841487884521e-01 -2.561447396874427795e-02 3.923800885677337646e-01
1.141121461987495422e-01 1.230922192335128784e-01 2.996090427041053772e-02
3.842280507087707520e-01 7.990894466638565063e-02 -5.949564650654792786e-02
6.412081718444824219e-01 -1.167535856366157532e-01 1.620190888643264771e-01
-1.231612041592597961e-01 1.232131943106651306e-01 2.732895016670227051e-01
-6.453974843025207520e-01 -9.011305868625640869e-03 1.163457781076431274e-01
-1.892350241541862488e-02 1.289400458335876465e-01 1.741598248481750488e-01
-2.365115135908126831e-01 8.930008858442306519e-02 4.080048203468322754e-01
1.844788938760757446e-01 -1.452213823795318604e-01 1.356679499149322510e-01
-5.536819100379943848e-01 1.409944444894790649e-01 9.574156999588012695e-02
-5.248935818672180176e-01 9.817487001419067383e-02 -3.021248579025268555e-01
-6.352187693119049072e-02 -9.172697365283966064e-02 3.530634939670562744e-01
2.398850023746490479e-01 1.043426692485809326e-01 8.172163367271423340e-02
4.632333219051361084e-01 -4.999186843633651733e-02 3.907800316810607910e-01
4.273721277713775635e-01 6.954446434974670410e-02 -8.796307444572448730e-02
-2.378344684839248657e-01 -8.331804722547531128e-02 -2.802832722663879395e-01
4.028881490230560303e-01 -1.511993557214736938e-01 8.666491508483886719e-02
3.000434339046478271e-01 9.619680792093276978e-02 3.409847617149353027e-02
2.255965322256088257e-01 -1.473615318536758423e-01 1.283614188432693481e-01
-5.681621432304382324e-01 -4.001898318529129028e-02 -2.956568822264671326e-02
-3.285055756568908691e-01 4.172417521476745605e-02 4.537398815155029297e-01
6.768437027931213379e-01 -1.208815947175025940e-01 -8.280819654464721680e-02
-4.505452215671539307e-01 1.507090628147125244e-01 1.620253920555114746e-02
7.360047698020935059e-01 -7.861520349979400635e-02 1.084035038948059082e-01
-1.735881865024566650e-01 1.461051497608423233e-02 -4.804233908653259277e-01
-1.626425385475158691e-01 1.470030695199966431e-01 -2.789946645498275757e-02
-3.354688286781311035e-01 -4.985657334327697754e-02 -3.364011049270629883e-01
-4.842220842838287354e-01 -5.661910027265548706e-02 1.345236599445343018e-01
-1.335013806819915771e-01 -1.083890944719314575e-01 -2.235311567783355713e-01
7.278975844383239746e-01 -1.035869047045707703e-01 -5.398411303758621216e-02
-9.696043282747268677e-02 4.050131142139434814e-02 -4.749433994293212891e-01
-1.056078672409057617e-01 1.246884912252426147e-01 2.583211064338684082e-01
-6.388674676418304443e-02 8.373182266950607300e-02 4.082793593406677246e-01
7.196525335311889648e-01 -6.381192058324813843e-02 1.509295701980590820e-01
1.336395926773548126e-02 -1.089754626154899597e-01 -3.100313544273376465e-01
8.612853288650512695e-02 -4.193580523133277893e-02 4.811674356460571289e-01
-6.022655963897705078e-01 -2.330966480076313019e-02 -1.134430170059204102e-01
-1.030220016837120056e-01 -1.254047751426696777e-01 -7.832652330398559570e-02
-7.261056303977966309e-01 9.805496782064437866e-02 1.113772690296173096e-01
6.733499765396118164e-01 -1.253010779619216919e-01 2.077829651534557343e-02
-3.418172895908355713e-01 2.471957728266716003e-02 4.514013826847076416e-01
5.280988216400146484e-01 7.003079168498516083e-03 2.884984016418457031e-01
-1.349787563085556030e-01 -7.979527860879898071e-02 -3.580661118030548096e-01
3.174025714397430420e-01 -3.161833062767982483e-02 -4.515604972839355469e-01
-4.144882261753082275e-01 8.316103368997573853e-02 3.907755911350250244e-01
4.688435792922973633e-02 3.603883460164070129e-02 4.757881760597229004e-01
5.791395902633666992e-02 -1.052691638469696045e-01 3.428735136985778809e-01
6.321390867233276367e-01 -9.150349348783493042e-02 -2.513572871685028076e-01
6.362140774726867676e-01 7.282949052751064301e-03 1.127843558788299561e-01
1.527352482080459595e-01 1.050596088171005249e-01 2.153938412666320801e-01
2.265420258045196533e-01 -1.427356004714965820e-01 1.777814775705337524e-01
-4.324122667312622070e-01 -5.990919098258018494e-02 -1.951011866331100464e-01
-7.569233775138854980e-01 5.985797569155693054e-02 -5.178754404187202454e-02
-6.191325187683105469e-02 8.006633073091506958e-02 4.170961976051330566e-01
-2.063737362623214722e-01 1.359564363956451416e-01 2.175522595643997192e-01
5.111731886863708496e-01 -9.536746144294738770e-02 -3.267785608768463135e-01
-2.801373042166233063e-02 -1.061154603958129883e-01 -3.050754964351654053e-01
-4.577799886465072632e-02 1.372126936912536621e-01 9.362113475799560547e-02
5.108820199966430664e-01 -4.629775136709213257e-02 3.647097945213317871e-01
2.573626637458801270e-01 -9.703357517719268799e-02 -3.872454464435577393e-01
2.973797321319580078e-01 -1.539205610752105713e-01 -2.544556744396686554e-02
1.820643395185470581e-01 -1.465759426355361938e-01 -1.169316023588180542e-01
-6.105458140373229980e-01 1.232983693480491638e-01 -1.572753489017486572e-01
-3.449482619762420654e-01 1.439149826765060425e-01 -1.567985564470291138e-01
4.712089300155639648e-01 -1.365030407905578613e-01 1.951837241649627686e-01
-1.973842978477478027e-01 -8.905154466629028320e-02 -2.838566601276397705e-01
3.964845240116119385e-01 -1.262143254280090332e-01 2.723926603794097900e-01
7.089199423789978027e-01 -6.031919643282890320e-02 1.700912117958068848e-01
-5.426518917083740234e-01 -3.419040516018867493e-02 1.868262588977813721e-01
5.926061421632766724e-02 1.283157318830490112e-01 -6.149432435631752014e-02
-5.044239759445190430e-02 -5.766345560550689697e-02 4.467334747314453125e-01
-7.622421979904174805e-01 6.402774155139923096e-02 4.279029741883277893e-02
-7.249947786331176758e-01 3.560843318700790405e-02 -1.050891131162643433e-01
1.491464227437973022e-01 -1.308946460485458374e-01 -2.436381131410598755e-01
2.877041101455688477e-01 8.281923085451126099e-02 -2.212139815092086792e-01
-1.111930385231971741e-01 1.020956337451934814e-01 -3.522521257400512695e-01
-5.529785752296447754e-01 1.326121985912322998e-01 1.736752539873123169e-01
-4.960792362689971924e-01 -5.790225788950920105e-02 7.797972857952117920e-02
4.173779189586639404e-01 6.655432283878326416e-02 -1.502389758825302124e-01
2.485587000846862793e-01 -1.524991095066070557e-01 -4.333128407597541809e-02
-2.454326897859573364e-01 -5.558226630091667175e-02 3.839963972568511963e-01
-4.239304363727569580e-01 -6.872066855430603027e-02 1.530511230230331421e-01
-5.379297137260437012e-01 1.305479705333709717e-01 -1.792462915182113647e-01
4.736337065696716309e-01 1.584855094552040100e-02 3.178088963031768799e-01
1.490739136934280396e-01 1.135470867156982422e-01 -1.341596692800521851e-01
2.600598335266113281e-01 1.011707037687301636e-01 -7.835698127746582031e-02
3.092970550060272217e-01 5.232030153274536133e-02 -3.408927917480468750e-01
2.271354496479034424e-01 -1.441388875246047974e-01 1.648064404726028442e-01
-9.881161153316497803e-02 -1.127154454588890076e-01 2.281134426593780518e-01
-3.882268667221069336e-01 -2.810637466609477997e-02 -3.578756153583526611e-01
4.466777145862579346e-01 -1.504832953214645386e-01 7.345889508724212646e-02
-2.732150852680206299e-01 1.511879265308380127e-01 4.597286134958267212e-02
6.726236939430236816e-01 -4.379301331937313080e-03 7.879617810249328613e-02
7.466021776199340820e-01 -9.302261471748352051e-02 -1.645310409367084503e-02
2.816193737089633942e-02 -1.401010751724243164e-01 -2.874920517206192017e-02
-4.795042872428894043e-01 -3.668553754687309265e-02 -2.517907023429870605e-01
4.033727347850799561e-01 7.663103938102722168e-02 -4.164236783981323242e-02
-3.346990942955017090e-01 1.295441240072250366e-01 2.681089639663696289e-01
5.789674818515777588e-02 -1.423795074224472046e-01 -3.600624203681945801e-02
9.056252986192703247e-02 -1.349779218435287476e-01 1.881903856992721558e-01
4.720222949981689453e-01 -1.506574153900146484e-01 4.074669629335403442e-02
4.196643829345703125e-01 5.489400401711463928e-02 2.284264415502548218e-01
6.831049323081970215e-01 -5.591803230345249176e-03 2.821618132293224335e-02
-6.727262735366821289e-01 1.255200058221817017e-01 2.105482108891010284e-02
-5.154061913490295410e-01 1.354593783617019653e-01 -1.632623970508575439e-01
-2.178681455552577972e-02 -9.918124973773956299e-02 3.409910202026367188e-01
1.645577996969223022e-01 1.017381474375724792e-01 2.276599705219268799e-01
3.506300151348114014e-01 -1.147708669304847717e-01 3.246375024318695068e-01
-6.375517249107360840e-01 1.260623484849929810e-01 -1.041917651891708374e-01
3.089111149311065674e-01 -1.282675713300704956e-01 -2.786737680435180664e-01
4.338876008987426758e-01 -5.076579749584197998e-02 4.043130278587341309e-01
5.182350277900695801e-01 -9.102216572500765324e-04 3.159489035606384277e-01
-4.741277694702148438e-01 1.295403540134429932e-01 -2.194610238075256348e-01
1.611821949481964111e-01 8.104107528924942017e-02 3.356883525848388672e-01
-6.025426387786865234e-01 1.383660584688186646e-01 1.359723974019289017e-02
-7.000939548015594482e-02 1.345659792423248291e-01 -1.491129845380783081e-01
-5.028370022773742676e-01 -1.213707961142063141e-02 -3.053587079048156738e-01
2.636949419975280762e-01 3.994179889559745789e-02 -3.994964957237243652e-01
4.097968041896820068e-01 1.308907847851514816e-02 3.720816969871520996e-01
2.514175772666931152e-01 9.931697696447372437e-02 1.326775848865509033e-01
-1.881462335586547852e-01 -6.581301987171173096e-02 -3.758664727210998535e-01
-4.596568644046783447e-01 1.182304471731185913e-01 2.902623713016510010e-01
-1.866396814584732056e-01 -9.025262296199798584e-02 2.928344607353210449e-01
-9.802348166704177856e-02 3.890461847186088562e-02 4.847623109817504883e-01
8.943792432546615601e-02 7.535284757614135742e-02 3.884446024894714355e-01
-3.815314471721649170e-01 1.487692296504974365e-01 -9.807839989662170410e-02
-1.682115346193313599e-01 -4.288617894053459167e-02 4.428635537624359131e-01
6.546619534492492676e-01 -3.718548105098307133e-04 -1.177684366703033447e-01
1.352819502353668213e-01 -7.791535556316375732e-02 -4.289632737636566162e-01
2.856596708297729492e-01 7.597307115793228149e-02 2.658371031284332275e-01
7.815659791231155396e-02 -1.234980300068855286e-01 2.636841833591461182e-01
4.029627144336700439e-01 -1.921482570469379425e-02 4.141835272312164307e-01
5.327493548393249512e-01 -2.573020197451114655e-02 -3.439710140228271484e-01
5.352920889854431152e-01 -1.267871409654617310e-01 2.118865400552749634e-01
4.480738341808319092e-01 6.169787794351577759e-02 1.293224394321441650e-01
-2.435747534036636353e-01 -1.084621250629425049e-01 1.472835987806320190e-02
-4.387934207916259766e-01 1.438537091016769409e-01 1.532862633466720581e-01
-3.193395137786865234e-01 1.521864533424377441e-01 -2.011121436953544617e-02
6.447777748107910156e-01 -6.027001887559890747e-02 2.574904561042785645e-01
-4.092694818973541260e-01 1.315768063068389893e-01 -2.306522578001022339e-01
3.558771908283233643e-01 6.873043626546859741e-02 2.301365882158279419e-01
-1.248324941843748093e-02 1.049267724156379700e-01 3.225748240947723389e-01
8.906658738851547241e-02 4.314698278903961182e-02 -4.527402818202972412e-01
-1.111577004194259644e-01 -1.091065630316734314e-01 2.427688688039779663e-01
6.716076731681823730e-01 -6.296903640031814575e-02 -2.338341176509857178e-01
5.368006229400634766e-01 -1.183969900012016296e-01 -2.520742714405059814e-01
1.469663083553314209e-01 1.083039864897727966e-01 1.957393586635589600e-01
-1.389833092689514160e-01 -1.218333095312118530e-01 -5.918097496032714844e-02
2.772786617279052734e-01 9.027621895074844360e-02 1.817046552896499634e-01
-4.307471215724945068e-01 -2.242255210876464844e-02 -3.407492041587829590e-01
-6.185179948806762695e-01 6.497853435575962067e-03 2.403403073549270630e-01
6.141760945320129395e-01 2.200226113200187683e-02 1.935978978872299194e-02
2.839236855506896973e-01 -7.256541401147842407e-02 4.299173951148986816e-01
4.580456018447875977e-02 -5.578500404953956604e-02 4.633247554302215576e-01
3.792024552822113037e-01 -1.530446410179138184e-01 -6.275394558906555176e-02
-5.489377975463867188e-01 -4.558476060628890991e-02 4.079526662826538086e-02
-1.777891218662261963e-01 -1.015343368053436279e-01 2.359663695096969604e-01
-2.852638959884643555e-01 -9.367922693490982056e-02 -1.596544086933135986e-01
1.131481304764747620e-01 9.646490961313247681e-02 -2.917128503322601318e-01
-7.532865405082702637e-01 8.361700922250747681e-02 -5.197786167263984680e-02
3.372310101985931396e-01 -1.537796258926391602e-01 -4.776678979396820068e-02
3.275341391563415527e-01 7.329962402582168579e-02 -2.350471913814544678e-01
1.005055941641330719e-02 -9.288566559553146362e-02 3.736830949783325195e-01
1.779494732618331909e-01 1.116888076066970825e-01 -1.066914498805999756e-01
-2.315443605184555054e-01 1.498964726924896240e-01 4.831766337156295776e-02
1.296538114547729492e-01 -1.465236246585845947e-01 -6.435802578926086426e-02
2.776108682155609131e-01 -1.213333606719970703e-01 3.076323270797729492e-01
-5.775954723358154297e-01 -1.289917342364788055e-02 -2.180413156747817993e-01
2.708231508731842041e-01 -1.250366419553756714e-01 -2.938043773174285889e-01
-1.089782267808914185e-01 1.357545703649520874e-01 1.758452206850051880e-01
-5.443415641784667969e-01 1.061168387532234192e-01 2.897778749465942383e-01
2.044615298509597778e-01 9.968857467174530029e-02 2.000696808099746704e-01
6.189453601837158203e-01 -5.791023373603820801e-02 -2.898270487785339355e-01
5.068569779396057129e-01 2.872443385422229767e-02 -2.435125261545181274e-01
-8.075662702322006226e-02 1.210189312696456909e-01 -2.599084377288818359e-01
-4.638236463069915771e-01 1.337826699018478394e-01 -2.006150782108306885e-01
5.296100676059722900e-02 -1.334954947233200073e-01 -1.753005683422088623e-01
-2.354686707258224487e-01 1.323141753673553467e-01 -2.353396415710449219e-01
4.761996865272521973e-01 3.504352644085884094e-02 -2.546542882919311523e-01
2.281983643770217896e-01 8.603347837924957275e-02 -2.614619135856628418e-01
4.564492497593164444e-03 1.337557286024093628e-01 -6.217684969305992126e-02
5.390722751617431641e-01 -6.658037751913070679e-02 -3.469967544078826904e-01
-4.584134519100189209e-01 -2.464327774941921234e-02 3.261258602142333984e-01
-3.695849180221557617e-01 -8.343312144279479980e-02 -1.010624617338180542e-01
-8.402226492762565613e-03 1.290693432092666626e-01 -1.539628207683563232e-01
-6.015263795852661133e-01 1.357076913118362427e-01 8.835875988006591797e-02
-6.357375383377075195e-01 5.802500993013381958e-02 2.859139442443847656e-01
-4.973720908164978027e-01 1.175939887762069702e-01 -2.603486478328704834e-01
1.435693204402923584e-01 9.654816240072250366e-02 2.767775654792785645e-01
-5.917184352874755859e-01 1.275707930326461792e-01 -1.520727425813674927e-01
4.927637577056884766e-01 4.702261649072170258e-03 3.267325758934020996e-01
-1.780973933637142181e-02 4.372484236955642700e-02 4.754132330417633057e-01
-1.657458543777465820e-01 -9.616256505250930786e-02 2.777609527111053467e-01
-3.839248716831207275e-01 -6.954061985015869141e-02 -2.027770727872848511e-01
5.085754990577697754e-01 -1.294406652450561523e-01 -2.213122248649597168e-01
-5.626047253608703613e-01 1.330642104148864746e-01 1.623782217502593994e-01
1.261863112449645996e-01 8.547537773847579956e-02 -3.323348164558410645e-01
-1.536671668291091919e-01 1.075643301010131836e-01 -3.395860791206359863e-01
-4.783443510532379150e-01 -6.027235835790634155e-02 -9.574061632156372070e-02
1.277680099010467529e-01 -1.472412347793579102e-01 3.457447886466979980e-02
3.852864205837249756e-01 6.089952215552330017e-02 -2.383524477481842041e-01
1.565739661455154419e-01 1.074291989207267761e-01 1.922444552183151245e-01
6.302229762077331543e-01 -1.185357198119163513e-01 1.671547591686248779e-01
4.839538037776947021e-02 -1.318559646606445312e-01 1.888851076364517212e-01
3.176164627075195312e-01 -1.494542360305786133e-01 1.236275881528854370e-01
1.540554016828536987e-01 -1.436552554368972778e-01 -1.374686509370803833e-01
-4.042012691497802734e-01 3.145902231335639954e-02 -4.158589243888854980e-01
-1.272812634706497192e-01 1.448407024145126343e-01 -3.399814292788505554e-02
-6.249298155307769775e-02 -1.096945628523826599e-01 2.725808620452880859e-01
-2.848723828792572021e-01 1.365225613117218018e-01 2.274976670742034912e-01
-6.063467264175415039e-01 6.771617382764816284e-02 3.086946606636047363e-01
6.707167029380798340e-01 -8.653804659843444824e-02 -2.185517996549606323e-01
2.864776551723480225e-01 -1.536841094493865967e-01 2.629184350371360779e-02
3.647816479206085205e-01 8.063805848360061646e-02 1.152112931013107300e-01
-4.774581491947174072e-01 -6.405328214168548584e-02 2.858838997781276703e-02
4.057755172252655029e-01 6.609135866165161133e-02 1.760656535625457764e-01
4.609646499156951904e-01 -1.515580862760543823e-01 2.733593061566352844e-02
-4.330351352691650391e-01 -6.840989738702774048e-02 -1.240787953138351440e-01
-3.529443442821502686e-01 1.269629895687103271e-01 -2.640727460384368896e-01
-4.051730632781982422e-01 -6.140918284654617310e-02 -2.238810360431671143e-01
1.945590972900390625e-01 -9.355667978525161743e-02 3.968066275119781494e-01
5.955915451049804688e-01 2.047197893261909485e-02 -1.318499743938446045e-01
-7.090172767639160156e-01 1.472636871039867401e-02 -4.151359945535659790e-02
2.551979720592498779e-01 4.616786539554595947e-02 -3.893213570117950439e-01
-1.477778255939483643e-01 -1.218040734529495239e-01 5.343059077858924866e-03
-1.012355647981166840e-02 -9.978294372558593750e-02 3.428963720798492432e-01
2.465941309928894043e-01 -1.265157908201217651e-01 2.843065261840820312e-01
5.026548504829406738e-01 -8.503309637308120728e-02 3.430993258953094482e-01
-5.470330268144607544e-02 8.877890557050704956e-02 -3.838100433349609375e-01
-2.820938453078269958e-02 9.217204898595809937e-02 -3.672558069229125977e-01
-9.254302084445953369e-02 -1.027056798338890076e-01 2.919660210609436035e-01
7.437478899955749512e-01 -9.529557824134826660e-02 1.309580449014902115e-02
3.842977285385131836e-01 7.631943374872207642e-02 -1.198736727237701416e-01
1.293090581893920898e-01 1.048417910933494568e-01 2.387507706880569458e-01
-3.584381937980651855e-01 -7.648199796676635742e-02 -1.909615397453308105e-01
-5.881674289703369141e-01 1.370500773191452026e-01 9.498490393161773682e-02
-4.888452291488647461e-01 1.447132676839828491e-01 -9.827317297458648682e-02
-5.368200540542602539e-01 -1.361418701708316803e-02 2.820224165916442871e-01
-6.313124895095825195e-01 2.176795713603496552e-02 2.591363191604614258e-01
1.214890852570533752e-01 1.213986203074455261e-01 -5.644704028964042664e-02
3.106547296047210693e-01 5.545815080404281616e-02 3.311823308467864990e-01
2.981619834899902344e-01 -1.199393793940544128e-01 3.122558295726776123e-01
-4.027888178825378418e-02 9.105966985225677490e-02 -3.737881183624267578e-01
3.994056880474090576e-01 -1.538807153701782227e-01 3.254386130720376968e-03
-8.031681180000305176e-02 -9.350859373807907104e-02 3.391815721988677979e-01
6.129895448684692383e-01 -9.485594183206558228e-02 2.549332976341247559e-01
3.505553901195526123e-01 7.494559139013290405e-02 -1.949964314699172974e-01
-7.050021737813949585e-02 -1.302721351385116577e-01 4.797707870602607727e-02
3.731515109539031982e-01 6.524667888879776001e-02 2.292560338973999023e-01
2.159290947020053864e-02 -1.079376712441444397e-01 3.206625282764434814e-01
-1.875255703926086426e-01 -2.820731326937675476e-02 4.593740105628967285e-01
3.185911178588867188e-01 6.309903413057327271e-02 2.960164248943328857e-01
5.235807299613952637e-01 -4.109006747603416443e-02 3.556793034076690674e-01
1.086822673678398132e-01 -9.731843322515487671e-02 3.801949024200439453e-01
-3.357443213462829590e-01 8.807678241282701492e-04 -4.293753504753112793e-01
2.359880656003952026e-01 1.066684424877166748e-01 2.317887917160987854e-02
-3.812710046768188477e-01 -7.802578806877136230e-02 -1.384439468383789062e-01
4.274154454469680786e-02 -1.023943945765495300e-01 -3.470291495323181152e-01
-5.595373511314392090e-01 5.832894146442413330e-02 3.467949032783508301e-01
4.977919161319732666e-01 1.993842236697673798e-02 -2.857187390327453613e-01
-2.438468784093856812e-01 1.504088379442691803e-02 4.767725467681884766e-01
1.434811800718307495e-01 -1.472727805376052856e-01 -6.593896448612213135e-02
-2.292723953723907471e-01 -1.102887690067291260e-01 -3.116153925657272339e-02
4.861858487129211426e-01 -1.504587829113006592e-01 -1.948319934308528900e-02
-3.214298188686370850e-02 -1.345093548297882080e-01 -3.200544044375419617e-02
-9.685470163822174072e-02 1.011676788330078125e-01 3.626192510128021240e-01
4.475530982017517090e-01 5.336938053369522095e-02 -1.984266638755798340e-01
-6.102946400642395020e-01 2.432666905224323273e-02 -2.702814638614654541e-01
-3.348039686679840088e-01 1.378770470619201660e-01 -2.046071887016296387e-01
-6.275528073310852051e-01 1.344345062971115112e-01 -8.332336321473121643e-03
1.607689820230007172e-02 2.965349331498146057e-02 4.863919019699096680e-01
2.747975885868072510e-01 -1.324817240238189697e-01 2.549768686294555664e-01
-2.805933952331542969e-01 -9.264289587736129761e-02 -1.762368679046630859e-01
-6.389213204383850098e-01 -8.305457420647144318e-03 -1.238053441047668457e-01
-6.225926876068115234e-01 1.295941323041915894e-01 1.184450536966323853e-01
3.866269439458847046e-02 -1.106009706854820251e-01 3.148826062679290771e-01
-5.625947713851928711e-01 -2.906227298080921173e-02 -1.656763404607772827e-01
-1.171257719397544861e-01 -8.414098620414733887e-02 3.574679791927337646e-01
2.146836668252944946e-01 1.028860509395599365e-01 1.568209528923034668e-01
7.202133536338806152e-01 -3.092079423367977142e-02 -8.262524008750915527e-02
-4.448068141937255859e-01 9.507086873054504395e-02 -3.435744941234588623e-01
6.603791713714599609e-01 -1.285523474216461182e-01 -2.632666751742362976e-02
-3.717731833457946777e-01 -8.527693152427673340e-02 -5.993733927607536316e-02
-2.892815172672271729e-01 8.511825650930404663e-02 -4.001261591911315918e-01
2.188273966312408447e-01 9.382235258817672729e-02 -2.229815870523452759e-01
-4.623740911483764648e-01 9.242764860391616821e-02 -3.423897922039031982e-01
-2.163045853376388550e-01 -2.166227437555789948e-02 4.591360986232757568e-01
-1.602909862995147705e-01 -1.022442653775215149e-01 2.468204647302627563e-01
4.430656433105468750e-01 -6.152140721678733826e-02 -3.984626829624176025e-01
-3.515182435512542725e-02 9.607764333486557007e-02 -3.559686243534088135e-01
2.641787230968475342e-01 1.013942882418632507e-01 -5.712665617465972900e-02
-5.059079825878143311e-02 9.850332140922546387e-02 -3.515481650829315186e-01
1.816871315240859985e-01 -1.359490454196929932e-01 2.193989008665084839e-01
5.469171404838562012e-01 -2.786682173609733582e-02 3.306691348552703857e-01
-1.871399581432342529e-01 3.395382687449455261e-02 -4.734926521778106689e-01
-1.262286305427551270e-01 -1.061304807662963867e-01 -2.445687949657440186e-01
4.445846676826477051e-01 4.838262125849723816e-02 -2.313973754644393921e-01
3.311353325843811035e-01 -5.608421936631202698e-02 4.374025464057922363e-01
5.409801006317138672e-01 4.444890841841697693e-02 1.641991175711154938e-02
-5.093643665313720703e-01 1.150274872779846191e-01 2.810311317443847656e-01
1.530310213565826416e-01 1.156978309154510498e-01 -9.514874219894409180e-02
-6.617455482482910156e-01 1.290589477866888046e-02 -1.738055944442749023e-01
-6.590669751167297363e-01 7.871835492551326752e-03 -1.604530960321426392e-01
1.719566136598587036e-01 1.157695129513740540e-01 2.716816961765289307e-02
2.965067923069000244e-01 8.348619192838668823e-02 -2.059796303510665894e-01
1.533555537462234497e-01 -1.489100158214569092e-01 -2.197898738086223602e-02
6.719316840171813965e-01 -1.042170729488134384e-02 -1.300587207078933716e-01
4.221001863479614258e-01 -1.310309469699859619e-01 2.434768229722976685e-01
3.361658155918121338e-01 -1.543796956539154053e-01 1.063972618430852890e-02
-1.006657406687736511e-01 -1.165284365415573120e-01 1.969042569398880005e-01
1.192422434687614441e-01 1.039473786950111389e-01 2.527271211147308350e-01
3.140339255332946777e-02 -1.395893841981887817e-01 -5.995428189635276794e-02
-3.420214056968688965e-01 1.469506472349166870e-01 1.410026103258132935e-01
-2.015026472508907318e-02 1.064647883176803589e-01 -3.102113008499145508e-01
-4.890937507152557373e-01 1.333366781473159790e-01 2.092462778091430664e-01
4.359792917966842651e-02 -1.263944804668426514e-01 2.290622889995574951e-01
3.724476099014282227e-01 -1.300369501113891602e-01 2.601054906845092773e-01
5.405808798968791962e-03 3.147241845726966858e-02 -4.794734418392181396e-01
1.797539144754409790e-01 -1.503532230854034424e-01 1.005267444998025894e-02
6.881154775619506836e-01 -1.256991643458604813e-02 8.370518684387207031e-02
2.349084801971912384e-02 7.018359750509262085e-02 4.224705994129180908e-01
-6.383076310157775879e-01 8.447369933128356934e-02 -2.464887797832489014e-01
5.769619718194007874e-03 1.202035620808601379e-01 -2.200437337160110474e-01
3.173720836639404297e-01 3.936110809445381165e-02 3.735828399658203125e-01
-3.824176788330078125e-01 9.204627573490142822e-02 3.832865953445434570e-01
6.265963912010192871e-01 -1.269980818033218384e-01 1.238983422517776489e-01
4.921692013740539551e-01 -1.299357563257217407e-01 2.212957739830017090e-01
-3.057896792888641357e-01 1.455805748701095581e-01 1.542706489562988281e-01
-1.583345830440521240e-01 1.470662653446197510e-01 -4.259998910129070282e-03
7.209168076515197754e-01 -2.611100114881992340e-02 2.351591549813747406e-02
4.511936604976654053e-01 6.621170043945312500e-02 -4.542819410562515259e-02
-1.181783899664878845e-01 7.089141011238098145e-02 -4.336604177951812744e-01
5.436191558837890625e-01 3.933043405413627625e-02 1.039685159921646118e-01
3.644492626190185547e-01 -1.532540917396545410e-01 5.705679208040237427e-02
-5.914688706398010254e-01 4.292836040258407593e-02 3.221583962440490723e-01
-1.614994555711746216e-01 -1.091446951031684875e-01 1.955400407314300537e-01
1.275650262832641602e-01 -1.249124407768249512e-01 2.724501490592956543e-01
3.336209952831268311e-01 -1.293966621160507202e-01 2.686604559421539307e-01
2.136561423540115356e-01 1.101096272468566895e-01 1.450192532502114773e-03
-2.635085582733154297e-01 -1.047831177711486816e-01 5.043173208832740784e-02
-2.183280698955059052e-02 1.348543763160705566e-01 -9.050595760345458984e-02
2.453432828187942505e-01 9.665013104677200317e-02 1.717622727155685425e-01
2.003157585859298706e-01 -1.363484412431716919e-01 -2.224508523941040039e-01
5.132546424865722656e-01 5.145978555083274841e-02 -3.749025613069534302e-02
3.569420278072357178e-01 -1.040768772363662720e-01 3.550363481044769287e-01
4.255619943141937256e-01 1.217912789434194565e-02 -3.646318316459655762e-01
7.438293695449829102e-01 -4.678970575332641602e-02 -5.046291276812553406e-02
4.483101963996887207e-01 6.549334526062011719e-02 7.706357538700103760e-02
