-3.679738044738769531e-01 -1.295528858900070190e-01 1.278148442506790161e-01
4.168574512004852295e-02 -8.483995497226715088e-02 3.950453698635101318e-01
3.931632637977600098e-02 1.783546209335327148e-01 3.887564241886138916e-01
-2.746725082397460938e-01 6.122279167175292969e-01 -2.660281956195831299e-02
-1.997799277305603027e-01 6.436388492584228516e-01 1.555652767419815063e-01
1.446076668798923492e-02 -5.013783574104309082e-01 -3.371265530586242676e-01
2.755165994167327881e-01 2.759094238281250000e-01 2.758434116840362549e-01
-2.847309410572052002e-01 -1.121987998485565186e-01 -2.987133860588073730e-01
3.604388535022735596e-01 -7.666889578104019165e-02 -1.665521413087844849e-01
-3.816465139389038086e-01 1.727127134799957275e-01 -9.965966641902923584e-02
1.458174884319305420e-01 4.147074371576309204e-02 -3.759472370147705078e-01
2.476811259984970093e-01 -1.114041358232498169e-01 3.184678554534912109e-01
-1.693205833435058594e-01 -7.371568083763122559e-01 1.332353949546813965e-01
-1.988238245248794556e-01 6.800692677497863770e-01 -1.510828137397766113e-01
2.799175679683685303e-01 3.290395736694335938e-01 -2.457888722419738770e-01
3.010505437850952148e-01 -2.497355639934539795e-01 2.463429868221282959e-01
-1.851391345262527466e-01 -7.509592175483703613e-01 -1.257776021957397461e-01
-1.497018337249755859e-01 5.105801224708557129e-01 -2.970364689826965332e-01
-1.591697037220001221e-01 -4.755642414093017578e-01 -3.158072829246520996e-01
-1.480589061975479126e-01 -1.380783170461654663e-01 -3.827955126762390137e-01
-7.187581062316894531e-02 -6.921074539422988892e-02 3.860551118850708008e-01
3.992610871791839600e-01 -1.036320347338914871e-03 -4.628963395953178406e-02
3.262000381946563721e-01 -4.869412779808044434e-01 5.563313513994216919e-02
-1.940956562757492065e-01 -2.920799255371093750e-01 3.131404221057891846e-01
-3.836024701595306396e-01 -2.736987769603729248e-01 -1.069293823093175888e-02
-1.891653537750244141e-01 -1.067119687795639038e-01 3.376722633838653564e-01
-3.218746781349182129e-01 -1.903485655784606934e-01 2.056227624416351318e-01
3.567188978195190430e-01 4.234652221202850342e-01 4.169667512178421021e-02
-1.272797584533691406e-01 -7.478793263435363770e-01 1.615741699934005737e-01
1.459410637617111206e-01 -2.355954200029373169e-01 -3.596701025962829590e-01
-2.238174825906753540e-01 4.599067270755767822e-01 2.348104715347290039e-01
2.765128910541534424e-01 -1.102338954806327820e-01 2.945688962936401367e-01
2.345153838396072388e-01 7.233960032463073730e-01 1.886244118213653564e-02
3.603294193744659424e-01 3.911997377872467041e-01 7.163158804178237915e-02
-2.815070748329162598e-01 5.561202168464660645e-01 -1.210130378603935242e-01
-1.634169071912765503e-01 3.722952306270599365e-01 3.084985315799713135e-01
-2.895264029502868652e-01 1.812091618776321411e-01 2.425476461648941040e-01
-4.052080214023590088e-02 -4.871303737163543701e-01 3.254320323467254639e-01
3.741497397422790527e-01 -2.130859643220901489e-01 -9.602253139019012451e-02
1.657698452472686768e-01 7.758131027221679688e-01 -9.656173735857009888e-02
-4.035494849085807800e-02 -1.574443280696868896e-01 3.868296742439270020e-01
1.951186358928680420e-01 1.293431818485260010e-01 -3.466710746288299561e-01
3.635746836662292480e-01 -2.479296624660491943e-01 -1.146330758929252625e-01
-2.584592998027801514e-01 1.811622083187103271e-01 2.754177451133728027e-01
-3.788462877273559570e-01 5.035461485385894775e-02 1.008797958493232727e-01
-8.582742884755134583e-03 -4.506374895572662354e-01 3.393867611885070801e-01
1.410178989171981812e-01 4.386122226715087891e-01 3.218871355056762695e-01
3.547787368297576904e-01 -6.464657373726367950e-03 2.017855197191238403e-01
9.804332256317138672e-02 1.083599105477333069e-01 -3.903703689575195312e-01
-3.114251419901847839e-02 -6.418740004301071167e-02 -4.088275432586669922e-01
-3.506993055343627930e-01 -1.670303046703338623e-01 1.603227853775024414e-01
-1.069446355104446411e-01 8.031361103057861328e-01 8.845875412225723267e-02
3.713406920433044434e-01 4.940647631883621216e-02 -1.474025398492813110e-01
-1.040700748562812805e-01 7.798600196838378906e-01 1.255201101303100586e-01
1.582119315862655640e-01 -3.430130705237388611e-02 -3.703389167785644531e-01
-6.958639621734619141e-02 1.627494990825653076e-01 3.799588978290557861e-01
1.020489260554313660e-02 -6.997520327568054199e-01 -2.497233152389526367e-01
2.831759154796600342e-01 6.045953631401062012e-01 -8.675781637430191040e-02
-5.698131769895553589e-02 6.392021179199218750e-01 -2.728910744190216064e-01
-3.487098515033721924e-01 2.381736040115356445e-01 -1.762509196996688843e-01
-1.718784421682357788e-01 7.706658244132995605e-01 1.587308943271636963e-02
-3.111735582351684570e-01 4.080854058265686035e-01 1.360797584056854248e-01
-2.766167819499969482e-01 -2.869578897953033447e-01 -2.826146781444549561e-01
2.551551163196563721e-01 -5.524879693984985352e-01 1.770058572292327881e-01
3.731326460838317871e-01 7.305908203125000000e-02 -1.416658461093902588e-01
-3.119748830795288086e-01 1.707543432712554932e-01 2.155075222253799438e-01
1.462433934211730957e-01 -7.478664517402648926e-01 1.425068825483322144e-01
-3.022417724132537842e-01 3.271535784006118774e-02 2.428253293037414551e-01
-2.033905684947967529e-01 4.321983456611633301e-01 -2.928035259246826172e-01
-2.868629097938537598e-01 -4.044229388236999512e-01 -2.375841587781906128e-01
-3.544698655605316162e-01 3.736530840396881104e-01 -4.630949720740318298e-02
4.657586105167865753e-03 1.639404147863388062e-01 -4.017761647701263428e-01
2.831552922725677490e-01 4.743897914886474609e-02 2.939725518226623535e-01
3.212257325649261475e-01 1.712170839309692383e-01 -2.259092479944229126e-01
3.958479464054107666e-01 6.468352675437927246e-02 8.758936822414398193e-02
-7.159262150526046753e-02 1.326393634080886841e-01 -4.005076885223388672e-01
-1.501480638980865479e-01 7.094224095344543457e-01 -1.796957552433013916e-01
3.260603547096252441e-01 -4.631362259387969971e-01 9.369409084320068359e-02
3.974601328372955322e-01 9.043567627668380737e-02 -5.104271322488784790e-02
6.408233195543289185e-02 -3.436962366104125977e-01 3.616124391555786133e-01
2.782521247863769531e-01 5.492264628410339355e-01 -1.505831331014633179e-01
1.024072244763374329e-01 6.698058247566223145e-01 2.395488172769546509e-01
2.451021969318389893e-01 6.198597550392150879e-01 -1.508514881134033203e-01
-2.688986361026763916e-01 -4.958178400993347168e-01 1.831931918859481812e-01
1.346809267997741699e-01 3.132705092430114746e-01 -3.530234396457672119e-01
2.004043199121952057e-02 -8.456994891166687012e-01 9.696722775697708130e-02
-3.401393070816993713e-02 -5.390810370445251465e-01 3.090561926364898682e-01
-2.078822851181030273e-01 1.291542500257492065e-01 3.221208751201629639e-01
3.776612877845764160e-01 -2.256329953670501709e-01 9.574553370475769043e-02
1.915889978408813477e-02 -5.207298994064331055e-01 -3.302150964736938477e-01
-8.107691258192062378e-02 -7.063186168670654297e-01 2.174728065729141235e-01
2.427710406482219696e-02 2.753268480300903320e-01 3.770802021026611328e-01
-2.098195701837539673e-01 9.965126216411590576e-02 -3.540723919868469238e-01
-3.981063961982727051e-01 -5.427308380603790283e-02 1.305296923965215683e-02
3.458032011985778809e-01 3.940729200839996338e-01 1.255761235952377319e-01
3.511013984680175781e-01 -3.592092096805572510e-01 -8.669464290142059326e-02
-2.803550362586975098e-01 3.765669167041778564e-01 2.023403197526931763e-01
-5.040183663368225098e-02 -6.987744569778442383e-01 -2.499036937952041626e-01
3.235050737857818604e-01 5.341176986694335938e-01 4.781743884086608887e-02
1.040513888001441956e-01 -6.295304298400878906e-01 2.560668587684631348e-01
-3.120479881763458252e-01 -5.456264615058898926e-01 -9.408366680145263672e-02
8.098465949296951294e-02 -8.467326164245605469e-01 5.003185570240020752e-02
-3.438766896724700928e-01 -4.482630789279937744e-01 -8.710072934627532959e-02
-2.979615330696105957e-01 -5.744248628616333008e-01 -1.055496633052825928e-01
2.378611415624618530e-01 -5.881420969963073730e-01 -1.688286364078521729e-01
2.916607558727264404e-01 -5.857583284378051758e-01 -2.430816739797592163e-02
-3.834566771984100342e-01 -2.599080801010131836e-01 1.741577312350273132e-02
-7.136026024818420410e-02 8.501820564270019531e-01 -2.504929155111312866e-02
2.681784331798553467e-01 6.646879315376281738e-01 3.713991865515708923e-02
-2.810216248035430908e-01 5.925977826118469238e-01 2.216873317956924438e-02
-2.501707077026367188e-01 4.542556107044219971e-01 2.086436003446578979e-01
-1.874525249004364014e-01 3.733722269535064697e-01 2.930742204189300537e-01
-2.304369956254959106e-01 -5.967152118682861328e-01 -2.097460031509399414e-01
-1.559381335973739624e-01 5.524557828903198242e-02 -3.827403187751770020e-01
-3.464615643024444580e-01 -3.408668637275695801e-01 -1.610629409551620483e-01
-1.628427058458328247e-01 -7.976414561271667480e-01 5.266659334301948547e-02
1.440474539995193481e-01 7.053524851799011230e-01 -1.940218508243560791e-01
3.164243996143341064e-01 1.932172030210494995e-01 -2.292789667844772339e-01
2.349039018154144287e-01 1.400270499289035797e-02 3.327720761299133301e-01
1.649517267942428589e-01 -4.253419637680053711e-01 3.103859424591064453e-01
2.244280129671096802e-01 7.079902887344360352e-01 -9.157711267471313477e-02
-9.898877888917922974e-02 1.335996687412261963e-01 -3.953096568584442139e-01
1.376080960035324097e-01 -7.404869794845581055e-01 1.585823744535446167e-01
2.292545586824417114e-01 -6.671850085258483887e-01 1.142967864871025085e-01
1.868472099304199219e-01 4.842730760574340820e-01 2.854996621608734131e-01
-3.673964440822601318e-01 3.130291700363159180e-01 -4.667749628424644470e-02
2.031096667051315308e-01 -4.593862593173980713e-01 -2.715191245079040527e-01
-3.172154426574707031e-01 5.019247531890869141e-01 -5.324228480458259583e-02
-3.632749915122985840e-01 -3.737826943397521973e-01 2.962673828005790710e-02
2.898065000772476196e-02 -8.310045599937438965e-01 -1.296666711568832397e-01
3.298775553703308105e-01 2.582339942455291748e-01 2.134713232517242432e-01
-2.875258326530456543e-01 -5.622594952583312988e-01 -1.468130201101303101e-01
-3.351110219955444336e-01 -5.009590983390808105e-01 -2.979889139533042908e-02
-7.231383025646209717e-02 2.934803366661071777e-01 -3.802992701530456543e-01
1.674440503120422363e-01 7.504191398620605469e-01 1.339938640594482422e-01
-3.447515890002250671e-02 -8.303205966949462891e-01 -1.369363218545913696e-01
3.480191826820373535e-01 -1.129604130983352661e-01 -1.862401515245437622e-01
2.614212334156036377e-01 -1.578128933906555176e-01 -2.923231720924377441e-01
-2.690009176731109619e-01 1.015417501330375671e-01 2.745265066623687744e-01
-3.681737184524536133e-01 -3.189020156860351562e-01 -1.043911650776863098e-01
-3.197313547134399414e-01 -3.440454974770545959e-02 2.213705778121948242e-01
-2.460662573575973511e-01 -3.650265336036682129e-01 -2.920930683612823486e-01
1.750084161758422852e-01 4.364413619041442871e-01 3.075990080833435059e-01
-7.333818823099136353e-02 3.579157590866088867e-01 3.493641614913940430e-01
2.082629650831222534e-01 -7.142112851142883301e-01 -8.664254099130630493e-02
7.168097794055938721e-02 -8.457700610160827637e-01 -7.372184842824935913e-02
-1.871162652969360352e-01 -4.793300628662109375e-01 -2.995881736278533936e-01
-1.004092246294021606e-01 -7.998815178871154785e-01 -1.501593291759490967e-01
-3.113828599452972412e-01 -4.951052069664001465e-01 1.077363416552543640e-01
1.242888346314430237e-01 2.729050517082214355e-01 3.633074462413787842e-01
-3.587965965270996094e-01 -3.608409762382507324e-01 6.606689840555191040e-02
1.551125198602676392e-01 7.563880681991577148e-01 1.401458382606506348e-01
-2.159421145915985107e-01 -7.333317399024963379e-01 -9.220810979604721069e-02
1.568231284618377686e-01 -4.737614691257476807e-01 2.989292442798614502e-01
2.475480437278747559e-01 -6.774067878723144531e-01 2.118120715022087097e-02
-3.459666669368743896e-01 -1.510096937417984009e-01 -2.153652459383010864e-01
3.282454907894134521e-01 -3.914380818605422974e-02 2.419502437114715576e-01
-2.560783177614212036e-02 -2.377969175577163696e-01 -3.955213129520416260e-01
-1.367313563823699951e-01 7.454236745834350586e-01 1.333558410406112671e-01
2.863361872732639313e-02 -2.291242629289627075e-01 -3.937901854515075684e-01
-1.182103678584098816e-01 5.021945834159851074e-01 -3.142310678958892822e-01
-3.566251397132873535e-01 2.488689720630645752e-01 1.087069064378738403e-01
-1.323034167289733887e-01 -2.699034214019775391e-01 3.487215340137481689e-01
1.946755349636077881e-01 -7.560505867004394531e-01 2.010757848620414734e-02
4.784714430570602417e-02 7.983055710792541504e-01 1.537493616342544556e-01
-2.235924303531646729e-01 4.586156010627746582e-01 -2.667542695999145508e-01
2.044306546449661255e-01 -7.438795566558837891e-01 1.580685004591941833e-02
-2.544195950031280518e-02 1.148072108626365662e-01 -4.058741033077239990e-01
4.306454584002494812e-02 -7.710391879081726074e-01 -1.909284442663192749e-01
1.500834524631500244e-01 -5.677371621131896973e-01 2.648718357086181641e-01
3.580279648303985596e-01 1.060725674033164978e-01 1.920298784971237183e-01
1.485768556594848633e-01 -8.065599799156188965e-01 1.166995335370302200e-02
-3.876295313239097595e-02 -8.318758606910705566e-01 1.161078810691833496e-01
-3.577628731727600098e-01 -4.064233005046844482e-01 1.822353899478912354e-02
-2.558247745037078857e-01 -4.800427556037902832e-01 -2.434097528457641602e-01
-2.976310849189758301e-01 -1.029555574059486389e-01 -2.859904468059539795e-01
3.303594291210174561e-01 3.003025650978088379e-01 -1.833379119634628296e-01
5.140726268291473389e-02 -2.795887887477874756e-01 3.746541142463684082e-01
-3.997944891452789307e-01 -4.790274426341056824e-03 -2.120127342641353607e-02
3.461669683456420898e-01 4.077465087175369263e-02 2.167218774557113647e-01
-2.156706452369689941e-01 -5.673960447311401367e-01 2.084251046180725098e-01
-3.261674940586090088e-01 -5.066565275192260742e-01 -9.045580774545669556e-02
-3.686061799526214600e-01 2.114813625812530518e-01 8.827091753482818604e-02
5.428060516715049744e-02 3.108009397983551025e-01 3.698905408382415771e-01
3.936153948307037354e-01 2.141143232583999634e-01 2.167185023427009583e-02
3.708306252956390381e-01 -1.697068959474563599e-01 -1.229912415146827698e-01
1.586463749408721924e-01 -6.766776442527770996e-01 1.956854015588760376e-01
-1.751727908849716187e-01 2.315803617238998413e-01 3.300911486148834229e-01
1.585994958877563477e-01 -6.236156225204467773e-01 -2.305609136819839478e-01
3.193672597408294678e-01 3.408006727695465088e-01 2.052345126867294312e-01
-2.456499189138412476e-01 1.970621496438980103e-01 2.847753763198852539e-01
-2.190452069044113159e-01 6.394541263580322266e-01 -1.617298275232315063e-01
-1.321880966424942017e-01 -8.356090188026428223e-01 -1.915622130036354065e-02
-1.282966732978820801e-01 1.363692432641983032e-01 3.637271523475646973e-01
-3.531205654144287109e-02 2.518273293972015381e-01 -3.911638855934143066e-01
3.818233907222747803e-01 -2.268638908863067627e-01 7.350728660821914673e-02
1.164964400231838226e-02 7.864577174186706543e-01 -1.775647997856140137e-01
-2.427252829074859619e-01 -6.306559443473815918e-01 -1.686610579490661621e-01
-3.228212893009185791e-01 -5.361928343772888184e-01 -4.722318425774574280e-02
2.345810085535049438e-01 -4.286385178565979004e-01 2.619780302047729492e-01
2.912129163742065430e-01 5.262851119041442871e-01 -1.432380080223083496e-01
3.233280777931213379e-01 -3.162640333175659180e-01 -1.786141395568847656e-01
-2.923280894756317139e-01 -5.109942555427551270e-01 1.371582895517349243e-01
-1.157721057534217834e-01 1.769549846649169922e-01 3.647016286849975586e-01
-1.358055472373962402e-01 -7.564095854759216309e-01 1.468032151460647583e-01
1.203751862049102783e-01 5.727217793464660645e-01 -2.824985384941101074e-01
5.905267596244812012e-02 -6.109879612922668457e-01 -2.867218554019927979e-01
-1.682807132601737976e-02 5.015518069267272949e-01 3.219275772571563721e-01
-2.997897565364837646e-01 -5.975281596183776855e-01 5.500649102032184601e-03
-2.988560497760772705e-01 -2.245028018951416016e-01 2.311087995767593384e-01
-2.614117264747619629e-01 2.621252536773681641e-01 -2.929437458515167236e-01
3.033718280494213104e-02 -7.898815870285034180e-01 -1.772610098123550415e-01
-2.379482090473175049e-01 6.346486210823059082e-01 1.010132506489753723e-01
3.927175998687744141e-01 -1.694984436035156250e-01 -1.771304383873939514e-02
2.646583616733551025e-01 7.824917137622833252e-02 -2.980080544948577881e-01
-2.300176173448562622e-01 6.621819138526916504e-01 -1.145443916320800781e-01
-1.103828623890876770e-01 -8.495516777038574219e-01 -1.334954518824815750e-02
1.672355830669403076e-01 2.098665535449981689e-01 -3.540890812873840332e-01
-1.317183375358581543e-01 7.952697277069091797e-01 6.506677716970443726e-02
3.707560002803802490e-01 1.147371307015419006e-01 -1.432603299617767334e-01
3.113690316677093506e-01 5.187724232673645020e-01 -1.031621769070625305e-01
1.773507297039031982e-01 -4.446562826633453369e-01 2.976645827293395996e-01
-3.435898423194885254e-01 -3.244563639163970947e-01 1.312804222106933594e-01
1.134369671344757080e-01 7.554043531417846680e-01 -1.728360205888748169e-01
3.691050410270690918e-01 -6.658370047807693481e-02 -1.483154594898223877e-01
6.044011935591697693e-02 7.506465315818786621e-01 1.955901533365249634e-01
7.076929323375225067e-04 -7.188134789466857910e-01 2.244597673416137695e-01
-2.347900420427322388e-01 -1.382436454296112061e-01 -3.381707370281219482e-01
-1.922086924314498901e-01 3.431810438632965088e-02 3.377680182456970215e-01
2.669611871242523193e-01 -8.326147496700286865e-02 3.052353560924530029e-01
-3.691309392452239990e-01 -1.238370593637228012e-02 -1.774675697088241577e-01
2.429972589015960693e-01 -4.130846261978149414e-02 -3.171513974666595459e-01
-5.589440464973449707e-02 8.107120394706726074e-01 1.218309476971626282e-01
3.832174241542816162e-01 2.696401178836822510e-01 -4.308924078941345215e-02
1.299881786108016968e-01 -1.233544796705245972e-01 3.770840466022491455e-01
6.931584328413009644e-02 -7.359000444412231445e-01 -2.098084688186645508e-01
-1.863603740930557251e-01 7.448284626007080078e-01 -7.483541220426559448e-02
2.694820761680603027e-01 4.811226725578308105e-01 -2.034370005130767822e-01
1.964425444602966309e-01 1.171514689922332764e-01 -3.467395603656768799e-01
2.051846086978912354e-01 -5.897549390792846680e-01 2.127465605735778809e-01
1.969411224126815796e-01 4.755932390689849854e-01 2.823897600173950195e-01
1.452228426933288574e-01 6.195389628410339355e-01 2.494625449180603027e-01
-1.982621401548385620e-01 1.177906896919012070e-02 3.345739543437957764e-01
1.266136169433593750e-01 -6.847354769706726074e-01 -2.151002138853073120e-01
1.515852212905883789e-01 -7.146906852722167969e-01 1.706062555313110352e-01
-1.773821562528610229e-01 -2.088063396513462067e-02 3.469230234622955322e-01
-2.036115527153015137e-01 -4.400911331176757812e-01 2.705214619636535645e-01
-5.696862563490867615e-02 5.870704054832458496e-01 2.817267775535583496e-01
-6.254934519529342651e-02 -6.950255632400512695e-01 2.305333316326141357e-01
9.918130189180374146e-02 1.456369608640670776e-01 -3.874472677707672119e-01
3.535974323749542236e-01 -2.148547917604446411e-01 -1.527482867240905762e-01
5.978956446051597595e-02 -6.633062958717346191e-01 -2.601357996463775635e-01
9.042745083570480347e-02 -7.933318614959716797e-01 -1.438696384429931641e-01
-1.276134103536605835e-01 -7.474142909049987793e-01 -1.873699128627777100e-01
2.482065409421920776e-01 -6.009041666984558105e-01 -1.416335850954055786e-01
-7.679271697998046875e-02 -8.201397657394409180e-01 1.160089150071144104e-01
-3.895953297615051270e-01 -9.382046759128570557e-02 6.234035640954971313e-02
1.195388734340667725e-01 -4.976847767829895020e-01 -3.097829818725585938e-01
3.797629475593566895e-01 8.160132914781570435e-03 1.472614258527755737e-01
-9.610922634601593018e-02 -1.573451012372970581e-01 3.745704889297485352e-01
1.632512956857681274e-01 -9.148908406496047974e-02 3.674801886081695557e-01
1.932114213705062866e-01 -7.329126596450805664e-01 9.300118684768676758e-02
-2.800332307815551758e-01 2.209251001477241516e-02 -3.054296076297760010e-01
3.582179844379425049e-01 -3.830941617488861084e-01 4.746288992464542389e-03
1.857538074254989624e-01 -6.803663969039916992e-01 -1.643012017011642456e-01
-1.851733922958374023e-01 -1.955441534519195557e-01 -3.619459271430969238e-01
-2.628664672374725342e-01 2.014743089675903320e-01 2.680000066757202148e-01
1.636842489242553711e-01 -3.061076998710632324e-01 3.403358459472656250e-01
2.356998920440673828e-01 4.965781420469284058e-02 3.318189680576324463e-01
1.515661329030990601e-01 -4.104645550251007080e-01 -3.210331201553344727e-01
-2.490307241678237915e-01 4.080318808555603027e-01 2.287649214267730713e-01
1.607013344764709473e-01 -4.267246425151824951e-01 -3.113220036029815674e-01
-8.045829087495803833e-02 -8.444743752479553223e-01 7.272655516862869263e-02
9.361438453197479248e-02 -4.521387815475463867e-01 3.292371630668640137e-01
3.823448419570922852e-01 2.814252674579620361e-01 -3.713669627904891968e-02
2.215867042541503906e-01 1.081740185618400574e-01 3.384317159652709961e-01
-1.571550518274307251e-01 5.911574363708496094e-01 -2.559212148189544678e-01
2.901185154914855957e-01 6.236077547073364258e-01 -1.453147735446691513e-03
2.431681454181671143e-01 -4.030471742153167725e-01 -2.551383376121520996e-01
-2.027349621057510376e-01 7.274253964424133301e-01 -6.441447138786315918e-02
-3.856148719787597656e-01 1.583676785230636597e-01 -8.611375838518142700e-02
-1.515067219734191895e-01 7.217078804969787598e-01 1.423447132110595703e-01
-3.296408653259277344e-01 2.679340839385986328e-01 -2.041001617908477783e-01
-7.336749136447906494e-02 -6.826421618461608887e-01 -2.554090023040771484e-01
-2.627498805522918701e-01 -3.644140064716339111e-02 2.855778038501739502e-01
3.496681153774261475e-01 -2.825472354888916016e-01 1.548545360565185547e-01
-5.107235163450241089e-02 -8.694519996643066406e-01 -4.485575482249259949e-02
-2.330508828163146973e-02 6.079574823379516602e-01 -2.928883731365203857e-01
-1.830704808235168457e-01 7.340925335884094238e-01 -1.057296395301818848e-01
-2.301719933748245239e-01 2.665462493896484375e-01 2.858103811740875244e-01
7.306000590324401855e-02 1.933389455080032349e-01 3.842311203479766846e-01
2.450131438672542572e-02 5.976363420486450195e-01 -2.969797253608703613e-01
1.748014241456985474e-01 7.085020542144775391e-01 1.695090234279632568e-01
-6.477980315685272217e-02 8.455859422683715820e-01 4.705489426851272583e-02
1.626939177513122559e-01 2.880950570106506348e-01 -3.447929322719573975e-01
2.461776882410049438e-01 2.886599004268646240e-01 -2.886799573898315430e-01
-1.395002752542495728e-01 7.830383777618408203e-01 7.601272314786911011e-02
-3.537108898162841797e-01 3.796051144599914551e-01 -9.451623074710369110e-03
3.763435781002044678e-01 -2.756941616535186768e-01 6.025563180446624756e-02
-1.310735940933227539e-01 -6.751607060432434082e-01 -2.390890568494796753e-01
-2.194160372018814087e-01 -3.826873600482940674e-01 2.751214206218719482e-01
-2.591569423675537109e-01 -3.894297182559967041e-01 2.368168830871582031e-01
-2.730038166046142578e-01 4.426684975624084473e-02 2.744232416152954102e-01
-1.924235820770263672e-01 2.505835294723510742e-01 3.165182769298553467e-01
1.031031981110572815e-01 5.351515412330627441e-01 3.024402856826782227e-01
7.787960022687911987e-02 -4.929102361202239990e-01 -3.270308077335357666e-01
2.586624026298522949e-01 -6.129606962203979492e-01 -1.075286492705345154e-01
2.025569230318069458e-01 1.183165982365608215e-01 3.487225174903869629e-01
3.403816819190979004e-01 -4.122853875160217285e-01 9.517703950405120850e-02
-2.784805893898010254e-01 2.021529078483581543e-01 2.515762448310852051e-01
-1.569047868251800537e-01 -1.760777980089187622e-01 3.495220839977264404e-01
1.358255594968795776e-01 -7.206353545188903809e-01 -1.805991083383560181e-01
5.130211636424064636e-02 -5.184383690357208252e-02 3.956013619899749756e-01
-3.772005438804626465e-01 -7.632703334093093872e-02 1.089239567518234253e-01
7.916072756052017212e-02 -8.283736109733581543e-01 -1.026485562324523926e-01
1.011868640780448914e-01 -7.654613852500915527e-01 -1.664243042469024658e-01
-3.283228874206542969e-01 -2.008167356252670288e-01 1.940372437238693237e-01
-2.487707287073135376e-01 6.617318987846374512e-01 -3.737976774573326111e-02
-5.442829802632331848e-02 -3.424807786941528320e-01 3.591092228889465332e-01
2.223506420850753784e-01 -2.083434909582138062e-01 -3.182139396667480469e-01
-3.200216591358184814e-01 2.079597115516662598e-01 1.961796879768371582e-01
-3.319074213504791260e-01 -2.410810813307762146e-02 -2.456441372632980347e-01
1.800044029951095581e-01 -4.126635789871215820e-01 -3.035900592803955078e-01
1.169759631156921387e-01 2.335042059421539307e-01 -3.724385499954223633e-01
2.424912601709365845e-01 2.428059577941894531e-01 -3.001376390457153320e-01
1.583074331283569336e-01 5.169866085052490234e-01 2.887659370899200439e-01
-3.749271929264068604e-01 4.034391045570373535e-02 -1.594265103340148926e-01
-2.767326235771179199e-01 -2.467631846666336060e-01 2.526653707027435303e-01
-2.332610636949539185e-01 -1.132509112358093262e-01 -3.409582376480102539e-01
2.602165937423706055e-01 6.823641657829284668e-01 3.730934113264083862e-04
3.260154426097869873e-01 -4.760162234306335449e-01 7.659162580966949463e-02
2.569473981857299805e-01 5.572901666164398193e-02 -3.057461380958557129e-01
-7.363854348659515381e-02 6.823844909667968750e-01 2.264965921640396118e-01
3.198427557945251465e-01 -4.334774613380432129e-02 2.527902126312255859e-01
-3.110176324844360352e-01 -1.627932339906692505e-01 2.246266305446624756e-01
-9.086321294307708740e-02 -7.131506800651550293e-01 -2.313140034675598145e-01
-2.944371476769447327e-02 7.542557120323181152e-01 -2.034053802490234375e-01
-3.295604288578033447e-01 -4.844033420085906982e-01 6.240825355052947998e-02
8.677606284618377686e-02 5.563029646873474121e-01 -3.016984164714813232e-01
-3.350898623466491699e-01 2.913276255130767822e-01 1.433640718460083008e-01
6.466709077358245850e-02 6.532184481620788574e-01 -2.633170783519744873e-01
1.658661365509033203e-01 1.115796566009521484e-01 -3.638086020946502686e-01
-3.856294751167297363e-01 -8.609431982040405273e-02 7.999274134635925293e-02
-3.560572862625122070e-01 -3.358881175518035889e-02 1.612666100263595581e-01
-2.625566124916076660e-01 3.143751323223114014e-01 -2.789629101753234863e-01
-1.647969484329223633e-01 7.369171380996704102e-01 1.076238229870796204e-01
-1.193677857518196106e-01 8.038433790206909180e-01 -8.984469622373580933e-02
-1.817040592432022095e-01 3.019305169582366943e-01 -3.415465056896209717e-01
-2.651285529136657715e-01 -5.354205965995788574e-01 -2.042077779769897461e-01
-3.436695933341979980e-01 -3.721725344657897949e-01 -1.517310738563537598e-01
2.138536125421524048e-01 1.295832917094230652e-02 -3.393529951572418213e-01
8.563175052404403687e-02 -6.210477948188781738e-01 2.667099833488464355e-01
-1.647428870201110840e-01 7.801170945167541504e-01 3.233276307582855225e-03
-2.805247902870178223e-01 -6.032257080078125000e-01 8.202145248651504517e-02
2.804030478000640869e-01 1.124460399150848389e-01 -2.807781994342803955e-01
-2.798427641391754150e-01 -2.610778510570526123e-01 -2.845901846885681152e-01
4.813824314624071121e-03 -5.346496701240539551e-01 -3.268154859542846680e-01
-6.519241631031036377e-02 -5.239654779434204102e-01 3.086452484130859375e-01
3.871221840381622314e-01 -1.574159413576126099e-01 -6.789907813072204590e-02
-1.779893934726715088e-01 5.906551480293273926e-01 2.144504338502883911e-01
1.481595635414123535e-01 6.354361772537231445e-01 2.392986267805099487e-01
-2.849796116352081299e-01 -1.977042257785797119e-01 2.515088319778442383e-01
3.792707622051239014e-01 -1.320496499538421631e-01 1.290298998355865479e-01
1.956491023302078247e-01 4.363835752010345459e-01 2.961851358413696289e-01
2.748645246028900146e-01 -3.571463227272033691e-01 2.465904653072357178e-01
3.159748613834381104e-01 1.585954576730728149e-01 -2.348105013370513916e-01
-3.734695911407470703e-01 -1.347028613090515137e-01 -1.583383679389953613e-01
-5.806030333042144775e-02 -6.602991223335266113e-01 2.515196204185485840e-01
-3.709572553634643555e-01 7.406269013881683350e-02 -1.656007766723632812e-01
4.002209305763244629e-01 -8.817533403635025024e-02 1.965224370360374451e-02
2.630799710750579834e-01 6.055741310119628906e-01 -1.324601471424102783e-01
1.709578633308410645e-01 7.244058251380920410e-01 1.583579480648040771e-01
1.830805689096450806e-01 2.490382194519042969e-01 -3.402420580387115479e-01
-6.681823730468750000e-02 1.269822269678115845e-01 3.835338056087493896e-01
-2.539427280426025391e-01 -3.848033398389816284e-02 2.934529781341552734e-01
-3.060042858123779297e-01 -3.236864209175109863e-01 1.988661438226699829e-01
-1.873157322406768799e-01 -7.258490920066833496e-01 -1.538116484880447388e-01
-3.515012562274932861e-02 -7.109607458114624023e-01 2.265471518039703369e-01
1.750324070453643799e-01 -4.934822767972946167e-02 3.644923269748687744e-01
-1.764167994260787964e-01 -2.853862047195434570e-01 -3.537152409553527832e-01
2.485062479972839355e-01 -3.442507237195968628e-02 3.223998248577117920e-01
-3.259956538677215576e-01 -4.046100080013275146e-01 -1.749542206525802612e-01
-2.347408086061477661e-01 -3.634133338928222656e-01 -3.017109334468841553e-01
3.423261046409606934e-01 4.415769875049591064e-01 9.744074940681457520e-02
3.117004930973052979e-01 5.535680055618286133e-01 -5.880212411284446716e-02
-1.279008388519287109e-01 -3.135094344615936279e-01 -3.677786588668823242e-01
-3.159021735191345215e-01 -5.391214489936828613e-01 4.554240033030509949e-02
1.573012173175811768e-01 4.187761545181274414e-01 3.209099769592285156e-01
3.751158714294433594e-01 3.098397254943847656e-01 -5.583744868636131287e-02
3.233653903007507324e-01 3.812131583690643311e-01 -1.654790937900543213e-01
-5.916600674390792847e-02 -3.351263403892517090e-01 -3.781553506851196289e-01
3.842115402221679688e-01 -2.185969650745391846e-01 6.520541012287139893e-02
3.336061537265777588e-01 -3.460170328617095947e-01 1.612189859151840210e-01
1.100791096687316895e-01 -8.001573085784912109e-01 -1.168846786022186279e-01
-3.031965792179107666e-01 -5.843755602836608887e-01 2.224592864513397217e-02
1.103090420365333557e-01 1.148636490106582642e-01 -3.862043619155883789e-01
1.262106746435165405e-01 2.880364060401916504e-01 -3.608674108982086182e-01
-2.411009520292282104e-01 -3.980311006307601929e-02 3.042050302028656006e-01
-7.574491947889328003e-02 -7.872378826141357422e-01 -1.759045422077178955e-01
-1.401607394218444824e-01 -6.827201247215270996e-01 2.027531415224075317e-01
1.289218664169311523e-01 -3.401302099227905273e-01 -3.488447070121765137e-01
-3.529010415077209473e-01 -2.651955783367156982e-01 -1.763219982385635376e-01
-3.737280666828155518e-01 -2.763652205467224121e-01 6.282047927379608154e-02
-3.609150648117065430e-01 -1.681719273328781128e-01 1.383151561021804810e-01
3.689234554767608643e-01 2.851058542728424072e-01 -9.874382615089416504e-02
6.160710379481315613e-02 -8.003340363502502441e-01 -1.540143489837646484e-01
-3.568346798419952393e-01 2.688451409339904785e-01 9.840387105941772461e-02
-1.895990595221519470e-02 8.677878975868225098e-01 -8.358944207429885864e-03
-3.126444518566131592e-01 7.250907272100448608e-02 -2.671559154987335205e-01
6.433042138814926147e-02 8.612806200981140137e-01 -3.250478208065032959e-02
-2.495068162679672241e-01 -5.745145678520202637e-01 1.648649126291275024e-01
1.118723377585411072e-01 -8.283744454383850098e-01 -5.562199652194976807e-02
-2.487373203039169312e-01 1.752762347459793091e-01 -3.193068504333496094e-01
-2.780591845512390137e-01 2.788057327270507812e-01 -2.722755074501037598e-01
-2.053627967834472656e-01 -2.486011981964111328e-01 3.130093216896057129e-01
7.575833704322576523e-03 8.705070614814758301e-01 -1.106806844472885132e-02
3.632984757423400879e-01 2.669417560100555420e-01 -1.239584535360336304e-01
2.790859937667846680e-01 6.390376091003417969e-01 -3.917402029037475586e-02
1.725533157587051392e-01 -7.798603177070617676e-01 3.290931507945060730e-02
3.488605618476867676e-01 2.242855131626129150e-01 1.893549859523773193e-01
-2.260913848876953125e-01 -8.241188526153564453e-02 3.145357966423034668e-01
2.437799125909805298e-01 -3.671606779098510742e-01 2.742736041545867920e-01
9.514047950506210327e-02 2.978925406932830811e-01 -3.695867359638214111e-01
3.641470149159431458e-02 -5.471265912055969238e-01 3.076910078525543213e-01
-8.044196292757987976e-03 7.867959141731262207e-01 1.655913293361663818e-01
3.772944509983062744e-01 3.267993927001953125e-01 -1.486378815025091171e-02
-3.420801162719726562e-01 -3.643686473369598389e-01 1.162392571568489075e-01
1.468933522701263428e-01 -2.280971407890319824e-01 3.603052794933319092e-01
-3.498470783233642578e-01 -1.345750391483306885e-01 1.666680276393890381e-01
-2.966713011264801025e-01 -5.749303102493286133e-01 6.894468516111373901e-02
1.551933586597442627e-01 6.792322993278503418e-01 2.078230679035186768e-01
1.992834210395812988e-01 4.833313077688217163e-02 3.535236418247222900e-01
-1.838298887014389038e-02 6.789761781692504883e-01 -2.565899491310119629e-01
-9.560661762952804565e-02 -2.034698575735092163e-01 3.702808916568756104e-01
3.468092381954193115e-01 -4.272101521492004395e-01 2.391340211033821106e-02
-1.281215995550155640e-01 -3.782498836517333984e-01 3.298025727272033691e-01
1.191757395863533020e-01 8.244336247444152832e-01 7.388111948966979980e-02
-5.902725271880626678e-03 2.135868184268474579e-03 3.968321382999420166e-01
-2.872961387038230896e-02 5.073795318603515625e-01 -3.320855796337127686e-01
4.017218351364135742e-01 6.923010200262069702e-02 -2.025293000042438507e-02
-2.798529565334320068e-01 1.488297581672668457e-01 2.582156956195831299e-01
1.948724733665585518e-03 -4.051803052425384521e-01 3.515563011169433594e-01
-6.051383167505264282e-02 1.160078048706054688e-01 -4.032092392444610596e-01
3.196144998073577881e-01 4.203229844570159912e-01 -1.536615639925003052e-01
-1.742864698171615601e-01 7.184650301933288574e-01 -1.428295075893402100e-01
2.688907682895660400e-01 3.771198391914367676e-01 2.565969824790954590e-01
-6.614524871110916138e-02 5.024120211601257324e-01 3.117395341396331787e-01
-3.568030595779418945e-01 -3.952416181564331055e-01 -8.687110245227813721e-02
-8.309339731931686401e-02 6.118556857109069824e-01 -2.799549698829650879e-01
-5.373781174421310425e-02 -6.074619293212890625e-01 -2.970076203346252441e-01
2.362848371267318726e-01 -2.176958024501800537e-01 3.139158487319946289e-01
-2.016353905200958252e-01 3.964938223361968994e-02 -3.620359897613525391e-01
2.545503079891204834e-01 -3.996044397354125977e-01 -2.444088310003280640e-01
1.896232217550277710e-01 -6.975936889648437500e-01 -1.426572352647781372e-01
1.757992953062057495e-01 -3.440175950527191162e-02 3.646112978458404541e-01
2.520412802696228027e-01 3.940340578556060791e-01 -2.565629184246063232e-01
-1.469970345497131348e-01 4.062384665012359619e-01 3.085709214210510254e-01
3.994127213954925537e-01 2.773144282400608063e-02 -4.618143662810325623e-02
-2.550599724054336548e-02 -4.557169973850250244e-01 -3.524402379989624023e-01
-3.022294938564300537e-01 -4.641669690608978271e-01 1.473641097545623779e-01
2.993110716342926025e-01 1.219599694013595581e-01 -2.594461441040039062e-01
-1.036610528826713562e-01 -8.454062342643737793e-01 -6.477465480566024780e-02
3.883334398269653320e-01 -1.764792054891586304e-01 -5.006564036011695862e-02
4.951095907017588615e-04 -1.503268033266067505e-01 -4.040537476539611816e-01
-2.932168915867805481e-02 1.823128461837768555e-01 3.854374885559082031e-01
-2.935965657234191895e-01 -6.090883016586303711e-01 1.780587434768676758e-02
-3.603295385837554932e-01 -8.287741243839263916e-02 -1.951328814029693604e-01
3.963215351104736328e-01 1.571745574474334717e-01 -3.243158385157585144e-02
2.906434237957000732e-02 -3.801462054252624512e-01 -3.679326772689819336e-01
7.807082682847976685e-02 -5.619184970855712891e-01 -3.020344078540802002e-01
1.284021437168121338e-01 2.688527107238769531e-01 -3.631431162357330322e-01
1.016065850853919983e-01 -1.363289058208465576e-01 3.835252821445465088e-01
-3.741536438465118408e-01 -2.250080183148384094e-02 1.193692013621330261e-01
1.474339216947555542e-01 -6.545610427856445312e-01 -2.201812863349914551e-01
-2.736040055751800537e-01 6.075310707092285156e-01 2.659999951720237732e-02
1.616139709949493408e-01 6.649742126464843750e-01 -2.096916139125823975e-01
-3.506357073783874512e-01 -7.138863950967788696e-02 1.706655323505401611e-01
-2.043405920267105103e-01 -1.383184194564819336e-01 3.262090981006622314e-01
-8.689335733652114868e-02 8.196181654930114746e-01 -1.005922853946685791e-01
1.429127752780914307e-01 5.041512250900268555e-01 -2.988139986991882324e-01
3.538673222064971924e-01 3.340941965579986572e-01 1.390522867441177368e-01
5.830550100654363632e-03 -8.742053508758544922e-01 -3.731054440140724182e-02
2.766510844230651855e-01 -4.078717529773712158e-01 -2.146980017423629761e-01
1.295686699450016022e-02 5.495398640632629395e-01 -3.174167871475219727e-01
-3.020220994949340820e-02 5.447428822517395020e-01 -3.186316490173339844e-01
3.461434841156005859e-01 4.312892258167266846e-01 9.316181391477584839e-02
1.060718148946762085e-01 1.770879030227661133e-01 -3.825515806674957275e-01
4.657870531082153320e-02 3.482881486415863037e-01 -3.708789348602294922e-01
-1.758815646171569824e-01 6.608881950378417969e-01 1.698748767375946045e-01
2.585223019123077393e-01 6.802459955215454102e-01 4.461481794714927673e-02
1.653603315353393555e-01 1.215698383748531342e-02 3.695795536041259766e-01
-1.671898514032363892e-01 -4.430178403854370117e-01 2.936509549617767334e-01
-1.459501236677169800e-01 -2.520783841609954834e-01 -3.715453147888183594e-01
2.026433646678924561e-01 -1.401095092296600342e-01 -3.398584723472595215e-01
-1.715375185012817383e-01 7.253016829490661621e-01 1.123699769377708435e-01
-1.348174512386322021e-01 1.067885458469390869e-01 -3.874549269676208496e-01
-2.770152688026428223e-01 -5.329800248146057129e-01 1.499091684818267822e-01
7.842370122671127319e-02 -2.190585434436798096e-01 3.796423077583312988e-01
-8.259109407663345337e-02 6.899991631507873535e-01 2.177274078130722046e-01
-1.653537750244140625e-01 3.044064529240131378e-02 3.527191281318664551e-01
2.259962111711502075e-01 5.212340950965881348e-01 -2.335074245929718018e-01
1.571440100669860840e-01 3.508666902780532837e-02 -3.710110783576965332e-01
-9.497953578829765320e-03 -8.770356774330139160e-01 -1.885590702295303345e-02
-2.436433434486389160e-01 -5.662867426872253418e-01 1.777660548686981201e-01
2.230352908372879028e-01 -4.723065495491027832e-01 2.552040815353393555e-01
1.672686338424682617e-01 5.563642382621765137e-01 2.681353986263275146e-01
1.162602826952934265e-01 7.418291568756103516e-01 1.828736513853073120e-01
-2.378446906805038452e-01 1.509873420000076294e-01 -3.307421207427978516e-01
-6.160542741417884827e-02 -1.766061633825302124e-01 -3.998046517372131348e-01
-2.869705259799957275e-01 -4.221109747886657715e-01 1.916153728961944580e-01
-9.908472001552581787e-02 3.481633216142654419e-02 -4.005260169506072998e-01
2.930325567722320557e-01 -2.997750639915466309e-01 -2.302322238683700562e-01
-3.573787212371826172e-01 -3.720076978206634521e-01 6.265652179718017578e-02
-8.623351156711578369e-02 -4.731411337852478027e-01 3.195248544216156006e-01
2.778741419315338135e-01 6.483268737792968750e-01 -1.013408694416284561e-02
-1.655252128839492798e-01 7.506310939788818359e-02 3.509416878223419189e-01
-3.474132716655731201e-01 2.833607494831085205e-01 -1.604780405759811401e-01
4.015071690082550049e-01 -3.804975003004074097e-02 -1.785157993435859680e-02
-1.382535099983215332e-01 -4.163304269313812256e-01 3.160395622253417969e-01
-5.338666588068008423e-02 -1.130627542734146118e-01 3.878268599510192871e-01
9.397185593843460083e-02 -3.640115261077880859e-01 -3.567627668380737305e-01
-3.402839601039886475e-01 -4.837782382965087891e-01 -2.535840496420860291e-02
2.433050572872161865e-01 -3.660174310207366943e-01 -2.667828798294067383e-01
-1.587916165590286255e-02 4.047493636608123779e-01 -3.624152839183807373e-01
3.651966154575347900e-02 7.101249098777770996e-01 2.279515117406845093e-01
-3.267905414104461670e-01 -6.422496587038040161e-02 2.105886936187744141e-01
-3.578650355339050293e-01 1.111611947417259216e-01 1.461223661899566650e-01
-3.243115544319152832e-01 -5.340143442153930664e-01 -3.520774841308593750e-02
-1.381390094757080078e-01 -1.702252589166164398e-02 -3.905279040336608887e-01
-1.943466812372207642e-01 7.414336204528808594e-01 2.586328610777854919e-02
-6.507894396781921387e-02 -7.993411421775817871e-01 1.467689871788024902e-01
2.528333067893981934e-01 -4.921604990959167480e-01 -2.072070986032485962e-01
-2.574418783187866211e-01 -5.097633600234985352e-01 -2.277898937463760376e-01
-4.446731135249137878e-02 2.720525860786437988e-01 3.716703653335571289e-01
-2.258980870246887207e-01 -6.068492531776428223e-01 1.742727458477020264e-01
-3.772901296615600586e-01 2.074972838163375854e-01 5.484928190708160400e-02
-3.063285648822784424e-01 4.926515519618988037e-01 -1.203608810901641846e-01
-1.065110787749290466e-01 -8.476243019104003906e-01 -5.021264031529426575e-02
2.156756371259689331e-01 -7.072459459304809570e-01 -7.958266884088516235e-02
-3.351686000823974609e-01 -1.272890567779541016e-01 1.933082938194274902e-01
2.060980349779129028e-01 1.402187794446945190e-01 -3.390198051929473877e-01
3.422635197639465332e-01 -2.628901004791259766e-01 -1.614543944597244263e-01
-3.772407770156860352e-01 -2.121703922748565674e-01 8.002185076475143433e-02
-1.085349619388580322e-01 -6.812899559736251831e-02 -3.981197178363800049e-01
3.411712944507598877e-01 2.324179112911224365e-01 -1.828600615262985229e-01
1.056581288576126099e-01 8.097894191741943359e-01 -1.156006753444671631e-01
1.123989894986152649e-01 7.862833142280578613e-01 1.407501101493835449e-01
-1.420326828956604004e-01 -7.344746589660644531e-01 1.620984673500061035e-01
-3.430482447147369385e-01 -4.578685760498046875e-01 -7.724025100469589233e-02
3.578713834285736084e-01 2.660250067710876465e-01 -1.383095681667327881e-01
4.500413686037063599e-02 -5.017358064651489258e-01 -3.323959410190582275e-01
1.561933308839797974e-01 -1.361149996519088745e-01 3.670751750469207764e-01
-2.033079862594604492e-01 6.508919596672058105e-01 -1.735097318887710571e-01
8.872728049755096436e-02 4.957363307476043701e-01 3.195847570896148682e-01
1.087713539600372314e-01 7.191346287727355957e-01 -2.055975794792175293e-01
3.157055974006652832e-01 -5.280038118362426758e-01 3.107044845819473267e-03
1.746421158313751221e-01 -6.824019551277160645e-01 1.767524182796478271e-01
3.941735327243804932e-01 1.430390775203704834e-02 9.786918759346008301e-02
2.690123319625854492e-01 -4.981499910354614258e-01 1.916327327489852905e-01
-3.052176535129547119e-01 5.081425309181213379e-01 -1.056050434708595276e-01
-2.506265044212341309e-01 -6.157917380332946777e-01 1.327707469463348389e-01
2.650568783283233643e-01 6.653792262077331543e-01 5.490846186876296997e-02
-1.338859945535659790e-01 3.104516267776489258e-01 -3.610584735870361328e-01
-1.673430055379867554e-01 6.793804168701171875e-01 -1.896890997886657715e-01
3.234262764453887939e-01 -2.817207872867584229e-01 2.060968279838562012e-01
-3.900421261787414551e-01 1.634582579135894775e-01 -1.631096936762332916e-02
-3.626092672348022461e-01 -1.870685815811157227e-01 -1.755374073982238770e-01
-3.760250210762023926e-01 -4.807817935943603516e-02 -1.598485857248306274e-01
-3.669831454753875732e-01 -2.099435478448867798e-01 1.133006140589714050e-01
-5.799690261483192444e-02 5.193030834197998047e-01 -3.244371712207794189e-01
-1.751029193401336670e-01 3.937706351280212402e-01 2.956377267837524414e-01
2.807418107986450195e-01 4.589238464832305908e-01 2.123357802629470825e-01
2.697254121303558350e-01 4.287785589694976807e-01 2.380193918943405151e-01
-3.204482793807983398e-01 -1.971842348575592041e-02 -2.613984644412994385e-01
-7.792691141366958618e-02 -5.837529897689819336e-01 2.824812531471252441e-01
1.560699939727783203e-01 5.697389841079711914e-01 -2.653672695159912109e-01
3.071634471416473389e-01 5.032521486282348633e-01 -1.269908845424652100e-01
1.321822553873062134e-01 -3.403604328632354736e-01 3.458312451839447021e-01
-3.139664530754089355e-01 1.203833073377609253e-01 -2.603841722011566162e-01
-1.641558259725570679e-01 6.578719615936279297e-01 -2.093870639801025391e-01
4.024899005889892578e-01 -2.645362354815006256e-02 -6.888888776302337646e-03
1.469788253307342529e-01 1.100620925426483154e-01 3.735014796257019043e-01
4.228817671537399292e-02 -2.942091822624206543e-01 3.730617463588714600e-01
-9.745559096336364746e-02 6.390146017074584961e-01 2.413181662559509277e-01
1.500566750764846802e-01 -3.356267511844635010e-01 3.400789201259613037e-01
-1.030301116406917572e-02 -4.982088208198547363e-01 -3.397713601589202881e-01
-3.826633989810943604e-01 2.189634591341018677e-01 -4.875411838293075562e-02
3.175338208675384521e-01 -3.479459881782531738e-01 1.912466138601303101e-01
1.436266489326953888e-02 7.064235210418701172e-01 2.306864112615585327e-01
1.008495092391967773e-01 1.719103753566741943e-01 3.815638422966003418e-01
-4.811498150229454041e-02 -8.528090119361877441e-01 7.745744287967681885e-02
2.474936693906784058e-01 -4.717784821987152100e-01 2.318301796913146973e-01
2.298998236656188965e-01 7.030707597732543945e-01 9.607460349798202515e-02
2.566380798816680908e-01 -6.255375742912292480e-01 -9.678696095943450928e-02
1.362078338861465454e-01 -8.580426126718521118e-02 -3.781063258647918701e-01
9.248084574937820435e-02 8.317062854766845703e-01 -8.987137675285339355e-02
-1.869475096464157104e-01 1.804651692509651184e-02 3.412684202194213867e-01
2.868065796792507172e-02 7.431202530860900879e-01 2.051580250263214111e-01
-3.838800489902496338e-01 -2.127156555652618408e-01 5.086539685726165771e-02
3.754559159278869629e-01 2.987637817859649658e-01 -6.352768838405609131e-02
2.512041926383972168e-01 -4.164178073406219482e-01 2.508108913898468018e-01
-2.893417477607727051e-01 4.620859920978546143e-01 1.465507298707962036e-01
-2.795827090740203857e-01 -4.915037751197814941e-01 1.701067686080932617e-01
3.238772153854370117e-01 2.445914149284362793e-01 -2.087421864271163940e-01
-2.956958115100860596e-01 -8.580859750509262085e-02 2.500922977924346924e-01
-3.478752076625823975e-01 3.007414638996124268e-01 1.078355163335800171e-01
1.129241064190864563e-01 -9.134660474956035614e-03 -3.888492882251739502e-01
8.796805888414382935e-02 3.376457691192626953e-01 -3.642305731773376465e-01
6.845265626907348633e-02 8.456244468688964844e-01 -8.066926151514053345e-02
2.320804744958877563e-01 -2.699640691280364990e-01 3.076398670673370361e-01
2.416736185550689697e-01 -6.697371006011962891e-01 7.804513722658157349e-02
6.133211404085159302e-02 5.816101431846618652e-01 2.924625277519226074e-01
-3.648457527160644531e-01 3.107286393642425537e-01 3.133281692862510681e-02
3.287034034729003906e-01 -3.416810333728790283e-01 1.734829992055892944e-01
1.379290362820029259e-03 -2.181822955608367920e-01 -3.974576890468597412e-01
-2.343313694000244141e-01 -1.159886494278907776e-01 3.064978420734405518e-01
1.112538273446261883e-03 -3.373372182250022888e-02 3.969390392303466797e-01
-5.221927911043167114e-02 -8.384410142898559570e-01 1.015633866190910339e-01
6.811200827360153198e-02 8.119935393333435059e-01 -1.366519927978515625e-01
2.197178751230239868e-01 4.211155474185943604e-01 -2.769926488399505615e-01
-1.741792708635330200e-01 -5.659790039062500000e-01 -2.730110585689544678e-01
2.558139264583587646e-01 -3.470377326011657715e-01 -2.598762214183807373e-01
-7.443571090698242188e-02 1.858086735010147095e-01 3.764936327934265137e-01
2.389719486236572266e-01 3.314442038536071777e-01 -2.855376005172729492e-01
-2.950679957866668701e-01 5.641152262687683105e-01 2.873915247619152069e-03
-3.365371525287628174e-01 4.136874377727508545e-01 -9.952554851770401001e-02
2.452029436826705933e-01 -2.207572907209396362e-01 3.067020773887634277e-01
