5.859566926956176758e-01 1.056784316897392273e-01 2.587290853261947632e-02
3.753216862678527832e-01 1.245919242501258850e-01 -1.242279261350631714e-02
2.167783081531524658e-01 -3.239981830120086670e-01 -1.692205369472503662e-01
5.247097015380859375e-01 1.122416481375694275e-01 5.996449291706085205e-02
7.423801422119140625e-01 -1.657816022634506226e-02 -2.635792195796966553e-01
6.317455768585205078e-01 -3.577644377946853638e-02 -3.924077749252319336e-01
4.689732193946838379e-01 4.637286812067031860e-02 3.358077406883239746e-01
4.970823824405670166e-01 -1.387003213167190552e-01 4.402198195457458496e-01
6.393970847129821777e-01 -1.196314767003059387e-01 -3.650708794593811035e-01
-4.831543564796447754e-02 -2.422701120376586914e-01 -3.854705691337585449e-01
1.439669728279113770e-01 8.953290432691574097e-02 1.515242457389831543e-01
2.638491094112396240e-01 -1.053988412022590637e-01 -5.295028686523437500e-01
1.592470705509185791e-01 3.777351230382919312e-02 -4.046525955200195312e-01
6.536428630352020264e-02 -2.708379030227661133e-01 3.808116614818572998e-01
2.500363588333129883e-01 -3.324356675148010254e-01 -7.025778293609619141e-02
1.447190642356872559e-01 9.623043984174728394e-02 1.079144030809402466e-01
6.897180080413818359e-01 5.820702761411666870e-02 1.436706483364105225e-01
-1.646188497543334961e-01 1.428233832120895386e-02 4.321406409144401550e-02
1.087843328714370728e-01 -3.260200917720794678e-01 -1.885451376438140869e-01
-3.201780021190643311e-01 -1.999165415763854980e-01 -1.647756397724151611e-01
3.969232738018035889e-01 -2.583781778812408447e-01 3.360371291637420654e-01
-2.969448864459991455e-01 -6.512268632650375366e-02 7.188528776168823242e-03
2.275126725435256958e-01 -1.087079942226409912e-02 -4.903954565525054932e-01
1.600884199142456055e-01 -3.344239294528961182e-01 1.581698656082153320e-01
-2.242435216903686523e-01 -2.586624771356582642e-02 -1.627140045166015625e-01
2.352523654699325562e-01 3.942938894033432007e-02 -4.222329556941986084e-01
-2.425214350223541260e-01 -2.101601958274841309e-01 2.786644697189331055e-01
5.512437224388122559e-02 3.443069010972976685e-02 2.942522466182708740e-01
6.391234397888183594e-01 -1.791251152753829956e-01 -2.800659537315368652e-01
3.781682848930358887e-01 -3.034861981868743896e-01 -1.518292725086212158e-01
8.048070669174194336e-01 -5.014813318848609924e-02 1.141416653990745544e-01
6.813604831695556641e-01 7.942704111337661743e-02 4.122974723577499390e-02
-1.337656080722808838e-01 -3.192351460456848145e-01 -8.902098983526229858e-02
6.185446977615356445e-01 5.572015792131423950e-02 2.347534298896789551e-01
6.334664821624755859e-01 9.726802259683609009e-02 -5.006470531225204468e-02
3.346856832504272461e-01 -1.331279128789901733e-01 4.966730177402496338e-01
-3.219033181667327881e-01 -2.342849820852279663e-01 -7.743427157402038574e-02
4.718480706214904785e-01 -2.701300382614135742e-01 -2.096151709556579590e-01
3.945138454437255859e-01 -2.976548373699188232e-01 -1.670875549316406250e-01
-7.668495178222656250e-03 5.098257213830947876e-02 1.772678196430206299e-01
-2.375922203063964844e-01 -2.859503030776977539e-01 1.137710437178611755e-01
3.819962739944458008e-01 5.976312607526779175e-02 3.231757581233978271e-01
1.432820856571197510e-01 6.670897454023361206e-02 2.517051696777343750e-01
3.957868218421936035e-01 7.997857779264450073e-02 2.668910920619964600e-01
-2.527424991130828857e-01 -3.056730329990386963e-02 -1.501958444714546204e-02
4.108552932739257812e-01 -9.789008647203445435e-02 -5.058267712593078613e-01
3.671132922172546387e-01 4.076553136110305786e-02 3.651362657546997070e-01
6.599529981613159180e-01 -1.025185212492942810e-01 3.395311832427978516e-01
6.506147980690002441e-01 -1.772951483726501465e-01 2.694732844829559326e-01
-2.802380621433258057e-01 -6.746518611907958984e-02 -1.574275195598602295e-01
6.581932902336120605e-01 -6.830119341611862183e-02 3.457964658737182617e-01
5.834497809410095215e-01 7.380489259958267212e-02 2.103894650936126709e-01
-1.021723449230194092e-01 -2.258890867233276367e-02 -3.502735197544097900e-01
4.504506587982177734e-01 -2.796162366867065430e-01 -1.926494240760803223e-01
-3.223508596420288086e-03 7.255808264017105103e-02 -1.000115200877189636e-01
2.357432991266250610e-01 -1.600674837827682495e-01 -5.104338526725769043e-01
3.685069680213928223e-01 -9.515130519866943359e-02 -5.169210433959960938e-01
2.250851839780807495e-01 -2.914094924926757812e-01 -3.030460178852081299e-01
-2.210553586483001709e-01 -1.289947330951690674e-02 2.388912066817283630e-02
4.947747290134429932e-02 6.751897186040878296e-02 1.694297790527343750e-01
-1.085273921489715576e-01 -3.388394415378570557e-02 3.134116828441619873e-01
4.451077580451965332e-01 -2.894089519977569580e-01 -1.444159448146820068e-01
-1.154401004314422607e-01 -2.472561597824096680e-02 -3.406987786293029785e-01
3.174282908439636230e-01 -3.181092441082000732e-01 1.567908525466918945e-01
1.570787876844406128e-01 1.025874987244606018e-01 -1.495153605937957764e-01
4.657184481620788574e-01 8.656478673219680786e-02 -3.023444712162017822e-01
-9.183987975120544434e-03 -1.749373376369476318e-01 4.574848413467407227e-01
4.080535769462585449e-01 -3.822244703769683838e-02 -4.989674091339111328e-01
-1.023940742015838623e-02 -3.245751261711120605e-01 -1.732518076896667480e-01
8.005492687225341797e-01 -9.736870974302291870e-02 -1.096315532922744751e-01
5.622285604476928711e-01 1.070814505219459534e-01 5.866663902997970581e-02
7.169628143310546875e-01 2.763598412275314331e-02 1.909146904945373535e-01
4.103515148162841797e-01 -1.408426165580749512e-01 4.753130078315734863e-01
4.384991526603698730e-01 -2.913866937160491943e-01 1.698166131973266602e-01
5.683048963546752930e-01 1.088519766926765442e-01 -1.007943600416183472e-01
-3.048923909664154053e-01 -1.352695822715759277e-01 1.871418952941894531e-01
3.249044418334960938e-01 -2.740413248538970947e-01 3.365460336208343506e-01
5.902737379074096680e-01 1.066338941454887390e-01 -1.178416889160871506e-02
4.946078360080718994e-01 -2.145020812749862671e-01 -3.524087965488433838e-01
7.326924204826354980e-01 -1.746773123741149902e-01 8.900815248489379883e-02
2.351598441600799561e-01 7.270272821187973022e-02 2.727167010307312012e-01
1.564430892467498779e-01 1.068242117762565613e-01 -8.429273217916488647e-02
1.998423486948013306e-01 -2.969488799571990967e-01 -2.920613884925842285e-01
-3.233197033405303955e-01 -1.210705190896987915e-01 1.203936710953712463e-01
5.191528797149658203e-01 -6.851608306169509888e-02 -4.672023952007293701e-01
6.854163408279418945e-01 -1.690711379051208496e-01 -2.330797016620635986e-01
5.279350876808166504e-01 -2.527154386043548584e-01 2.274255156517028809e-01
-1.942244172096252441e-01 -2.157045006752014160e-01 3.250190019607543945e-01
2.607211470603942871e-01 7.917044311761856079e-02 2.588124275207519531e-01
4.462838768959045410e-01 1.230210885405540466e-01 -7.238033413887023926e-02
8.021639585494995117e-01 7.097467780113220215e-03 -3.011276945471763611e-03
-2.036954462528228760e-01 -2.275311201810836792e-01 -3.046497702598571777e-01
-2.631393373012542725e-01 -2.743172943592071533e-01 -9.525473415851593018e-02
-7.747724652290344238e-02 -1.908827722072601318e-01 4.213733673095703125e-01
1.493809223175048828e-01 -2.719842195510864258e-01 -3.662937581539154053e-01
1.330233365297317505e-01 1.423942297697067261e-02 -4.374518990516662598e-01
-1.908574402332305908e-01 -2.003914117813110352e-02 -2.218362987041473389e-01
-2.677219212055206299e-01 -2.802270948886871338e-01 9.475097060203552246e-03
-9.763458371162414551e-02 -2.323968857526779175e-01 -3.761109709739685059e-01
-2.992415130138397217e-01 -2.194960266351699829e-01 -1.837871372699737549e-01
4.769003093242645264e-01 -2.634813487529754639e-01 -2.313138842582702637e-01
1.310110092163085938e-01 9.274529665708541870e-02 1.169680133461952209e-01
3.142748177051544189e-01 -2.278859913349151611e-01 4.297584295272827148e-01
2.308767735958099365e-01 -3.348908126354217529e-01 -6.405936181545257568e-02
6.222499608993530273e-01 4.051578789949417114e-02 -3.240149915218353271e-01
-1.986281573772430420e-01 -3.215245902538299561e-03 -1.121929511427879333e-01
-5.631497502326965332e-02 -3.117924332618713379e-01 -2.090474963188171387e-01
3.344027101993560791e-01 1.059720143675804138e-01 -2.409169971942901611e-01
3.312166333198547363e-01 -2.544032037258148193e-02 -5.037879943847656250e-01
1.787938475608825684e-01 -3.333722949028015137e-01 1.581169664859771729e-01
7.967660427093505859e-01 -3.641580045223236084e-02 1.323119699954986572e-01
8.764934539794921875e-02 -3.208349645137786865e-01 -2.142109274864196777e-01
-1.916870772838592529e-01 -1.823299378156661987e-02 1.584411561489105225e-01
2.899005413055419922e-01 1.163379475474357605e-01 -1.556908190250396729e-01
-2.420702278614044189e-01 -2.891872823238372803e-02 -1.120550483465194702e-01
2.214741855859756470e-01 -1.839021891355514526e-01 4.884576499462127686e-01
1.862455755472183228e-01 -8.094036579132080078e-02 4.943288862705230713e-01
7.231648564338684082e-01 -1.948001980781555176e-02 2.535516321659088135e-01
5.607257485389709473e-01 -2.043715119361877441e-01 3.223989307880401611e-01
4.621456861495971680e-01 1.105954572558403015e-01 -1.983191967010498047e-01
7.332212924957275391e-01 -1.797572076320648193e-01 -3.151234984397888184e-02
-3.386123478412628174e-01 -1.773437559604644775e-01 -1.309124231338500977e-01
8.034516572952270508e-01 -9.976189583539962769e-02 -8.816522359848022461e-02
5.122809410095214844e-01 3.530564159154891968e-02 -3.988268375396728516e-01
2.696085274219512939e-01 7.537869364023208618e-02 2.734777033329010010e-01
5.085276067256927490e-02 -3.146394789218902588e-01 -2.368296980857849121e-01
3.231015801429748535e-01 2.674584835767745972e-02 -4.503343403339385986e-01
-8.544000983238220215e-02 4.887717217206954956e-02 -5.404094979166984558e-02
-2.813169658184051514e-01 -5.991443619132041931e-02 -1.214377954602241516e-01
-1.522819101810455322e-01 2.301340550184249878e-02 -3.612327948212623596e-02
4.035564959049224854e-01 -3.059041798114776611e-01 1.191787049174308777e-01
5.159648060798645020e-01 1.178354099392890930e-01 -1.898326352238655090e-02
5.621945858001708984e-01 1.618245989084243774e-02 3.484731018543243408e-01
6.733947992324829102e-02 -2.543732523918151855e-01 4.088234007358551025e-01
5.027382373809814453e-01 1.175596341490745544e-01 -1.016832366585731506e-01
7.661123275756835938e-01 3.221759945154190063e-02 -1.200611740350723267e-01
2.918109297752380371e-02 -3.325047194957733154e-01 -1.412492394447326660e-01
4.629116952419281006e-01 1.225575879216194153e-01 -3.939237073063850403e-02
5.656673908233642578e-01 -2.616392672061920166e-01 8.647318929433822632e-02
7.944988012313842773e-01 -1.166357398033142090e-01 6.490483134984970093e-02
1.016118675470352173e-01 5.269023030996322632e-02 -3.411687910556793213e-01
3.991950154304504395e-01 -1.214628070592880249e-01 4.840468466281890869e-01
6.366431713104248047e-01 -1.406037360429763794e-01 3.373501598834991455e-01
7.052091360092163086e-01 -1.557156443595886230e-01 2.257396876811981201e-01
-2.867222130298614502e-01 -8.337594568729400635e-02 1.441566646099090576e-01
8.107360601425170898e-01 -2.459378540515899658e-02 6.864630430936813354e-02
5.526976585388183594e-01 5.289196968078613281e-03 -4.165908694267272949e-01
-2.114289999008178711e-01 -3.040020167827606201e-01 1.733636669814586639e-02
-1.312523782253265381e-01 -1.394724547863006592e-01 -4.176607429981231689e-01
3.594669103622436523e-01 1.155359968543052673e-01 1.039740517735481262e-01
-2.546921372413635254e-02 -3.316042423248291016e-01 -1.200985759496688843e-01
4.980701804161071777e-01 9.367205202579498291e-03 3.865649700164794922e-01
-3.248411118984222412e-01 -1.635451763868331909e-01 1.564313173294067383e-01
1.270284354686737061e-01 -3.397008776664733887e-01 1.219152137637138367e-01
-1.513170897960662842e-01 -2.830992341041564941e-01 -2.381111085414886475e-01
-6.729438900947570801e-02 5.406749993562698364e-02 -8.403101563453674316e-02
-1.919609010219573975e-01 -3.076531589031219482e-01 7.598788291215896606e-02
2.962113916873931885e-01 -2.392081618309020996e-01 -4.067316055297851562e-01
-2.717780172824859619e-01 -2.711465358734130859e-01 -8.541648834943771362e-02
-4.665437340736389160e-02 -1.671768426895141602e-01 -4.576663970947265625e-01
-1.830712258815765381e-01 -2.972157001495361328e-01 1.670416891574859619e-01
1.378030478954315186e-01 4.061985760927200317e-02 3.249555230140686035e-01
2.037566602230072021e-01 -3.296522498130798340e-01 -1.388835012912750244e-01
6.359605193138122559e-01 -2.157446295022964478e-01 1.860168874263763428e-01
6.913874149322509766e-01 -1.842600554227828979e-01 -1.759926974773406982e-01
1.544090807437896729e-01 7.971795648336410522e-02 2.084922790527343750e-01
1.197453290224075317e-01 -2.511845827102661133e-01 4.193183481693267822e-01
3.107564151287078857e-01 -1.959479898214340210e-01 4.672112762928009033e-01
6.321832537651062012e-01 3.805308789014816284e-02 2.640657424926757812e-01
-1.893707811832427979e-01 -1.548214256763458252e-02 -2.085592746734619141e-01
3.512342870235443115e-01 -2.949825525283813477e-01 -2.247702181339263916e-01
4.283918738365173340e-01 2.798151224851608276e-02 -4.361868500709533691e-01
1.948305070400238037e-01 -1.764107942581176758e-01 -5.003407001495361328e-01
4.805111289024353027e-01 -1.150249466300010681e-01 -4.745862782001495361e-01
2.870132327079772949e-01 -2.643161118030548096e-01 3.748250901699066162e-01
2.201604545116424561e-01 -2.822581529617309570e-01 -3.309426903724670410e-01
1.197634637355804443e-02 -2.458089888095855713e-01 -4.003708362579345703e-01
-3.176912963390350342e-01 -2.440895736217498779e-01 -4.089081287384033203e-02
3.094973266124725342e-01 8.305994421243667603e-02 2.554908096790313721e-01
-1.442026197910308838e-01 -3.091931939125061035e-01 1.643852591514587402e-01
1.241382062435150146e-01 -3.438200354576110840e-01 -2.268082275986671448e-02
1.732226312160491943e-01 5.598806589841842651e-02 2.999901473522186279e-01
1.559204757213592529e-01 7.118963450193405151e-02 -3.160386085510253906e-01
5.225433111190795898e-01 -2.471091747283935547e-01 -2.377630770206451416e-01
4.904142916202545166e-01 7.756482809782028198e-02 2.513837814331054688e-01
6.119571924209594727e-01 -1.797295808792114258e-01 3.130666911602020264e-01
3.010614514350891113e-01 -3.257211744785308838e-01 -7.272067666053771973e-02
8.321155607700347900e-02 -1.904760897159576416e-01 4.756471514701843262e-01
2.214486002922058105e-01 5.755954235792160034e-02 -3.809005618095397949e-01
4.134231209754943848e-01 1.079045906662940979e-01 -2.292159199714660645e-01
-1.142726540565490723e-01 -2.306435108184814453e-01 -3.689746558666229248e-01
1.000776886940002441e-03 -3.676824271678924561e-02 3.983194828033447266e-01
1.280681788921356201e-02 2.616692334413528442e-02 -3.485831022262573242e-01
2.010807842016220093e-01 -2.241469919681549072e-02 4.501571953296661377e-01
1.265769600868225098e-01 8.256720751523971558e-02 -2.498717308044433594e-01
3.204066753387451172e-01 -3.238559365272521973e-01 9.178035706281661987e-02
7.583785057067871094e-01 2.888862043619155884e-02 1.064126268029212952e-01
-3.427749574184417725e-01 -1.556882858276367188e-01 -1.162829548120498657e-01
5.659641027450561523e-01 -2.544994354248046875e-01 -1.275853365659713745e-01
1.619893610477447510e-01 -3.196154534816741943e-01 -2.127217054367065430e-01
6.906529068946838379e-01 3.274469822645187378e-02 2.153013348579406738e-01
5.077153444290161133e-01 -2.619636356830596924e-01 -1.973699033260345459e-01
3.915291130542755127e-01 -4.889398813247680664e-03 4.313587248325347900e-01
-6.302675604820251465e-02 -1.989087462425231934e-02 -3.807461261749267578e-01
7.206283807754516602e-01 -1.216778233647346497e-01 2.513119876384735107e-01
2.723012566566467285e-01 8.717937022447586060e-02 2.329975068569183350e-01
-1.726010441780090332e-01 -7.523459196090698242e-02 3.134596645832061768e-01
3.456638455390930176e-01 -3.058147430419921875e-01 2.052831947803497314e-01
-2.032668590545654297e-01 -1.109381765127182007e-01 -3.492106795310974121e-01
6.894531846046447754e-01 -1.543306708335876465e-01 2.545313537120819092e-01
2.520207464694976807e-01 -1.631698012351989746e-01 4.976093471050262451e-01
-2.576964795589447021e-01 -3.522010892629623413e-02 1.694421470165252686e-02
5.693519711494445801e-01 -7.385659217834472656e-02 -4.396101832389831543e-01
6.049226522445678711e-01 -2.440554797649383545e-01 1.070096865296363831e-01
1.845567822456359863e-01 2.481441944837570190e-02 3.761084377765655518e-01
2.064498364925384521e-01 -2.438827753067016602e-01 4.280872046947479248e-01
-7.906422019004821777e-02 -7.105958461761474609e-02 -4.284316599369049072e-01
1.628652513027191162e-01 5.008407682180404663e-02 -3.789663910865783691e-01
7.595010995864868164e-01 4.266793280839920044e-02 3.050337359309196472e-02
2.322534173727035522e-01 5.330956727266311646e-02 3.265351057052612305e-01
1.754246801137924194e-01 -2.623778581619262695e-01 -3.852154612541198730e-01
8.147464692592620850e-02 -1.676135659217834473e-01 4.854532480239868164e-01
-7.119852304458618164e-02 -1.439819633960723877e-01 4.332488477230072021e-01
1.681324690580368042e-01 5.706136673688888550e-02 -3.637590408325195312e-01
-1.832323670387268066e-01 -1.114901155233383179e-02 1.481669843196868896e-01
1.471208035945892334e-01 8.616147190332412720e-02 1.727603673934936523e-01
1.839676797389984131e-01 9.442269802093505859e-03 -4.593030214309692383e-01
-2.215264141559600830e-01 -2.170648425817489624e-02 -1.500096321105957031e-01
5.524752140045166016e-01 3.289606422185897827e-02 3.271673917770385742e-01
-6.215003132820129395e-02 -3.357560634613037109e-01 5.585724115371704102e-02
6.977797150611877441e-01 -2.491376549005508423e-02 2.882614433765411377e-01
3.394978642463684082e-01 1.089819595217704773e-01 -2.253012061119079590e-01
6.882034242153167725e-02 -3.019076883792877197e-01 -2.846081256866455078e-01
9.883944690227508545e-02 -3.031477630138397217e-01 -2.826591432094573975e-01
4.117203354835510254e-01 -2.686150372028350830e-01 2.973460555076599121e-01
-2.136524617671966553e-01 -2.870289683341979980e-01 1.612172722816467285e-01
2.812741398811340332e-01 -2.493345439434051514e-01 4.054492115974426270e-01
2.561400532722473145e-01 -5.651842802762985229e-02 -5.229842662811279297e-01
7.186225652694702148e-01 1.162465661764144897e-02 2.198554575443267822e-01
5.213766098022460938e-01 -2.623323500156402588e-01 -1.737976670265197754e-01
8.088293075561523438e-01 -6.710516661405563354e-02 -1.219529882073402405e-01
4.596812725067138672e-01 1.169046834111213684e-01 7.223948836326599121e-02
-3.248784840106964111e-01 -1.056613549590110779e-01 7.501631975173950195e-02
1.970835030078887939e-01 -3.394853770732879639e-01 -3.559364005923271179e-02
3.852459788322448730e-02 -3.674566745758056641e-03 -4.231917560100555420e-01
-5.873933434486389160e-02 -3.364041447639465332e-02 -4.041863083839416504e-01
7.516249418258666992e-01 -4.803122952580451965e-02 2.310579121112823486e-01
-1.312012970447540283e-01 -3.152159750461578369e-01 -1.236471757292747498e-01
4.602029323577880859e-01 -2.686012983322143555e-01 -2.300388216972351074e-01
-3.018427193164825439e-01 -7.054973393678665161e-02 2.017980441451072693e-02
4.370402097702026367e-01 1.163926348090171814e-01 8.769533783197402954e-02
1.399088203907012939e-01 4.987514764070510864e-02 -3.694644868373870850e-01
-5.501297116279602051e-02 -3.163724243640899658e-01 2.152996957302093506e-01
3.854587078094482422e-01 -3.006957769393920898e-01 1.893049478530883789e-01
2.150617539882659912e-02 4.139093309640884399e-02 2.467201054096221924e-01
-1.793474555015563965e-01 -9.741204977035522461e-02 3.313265144824981689e-01
5.794661641120910645e-01 9.981792420148849487e-02 -1.672979593276977539e-01
3.065387308597564697e-01 -3.261496424674987793e-01 8.945014327764511108e-02
1.700878590345382690e-01 -3.333775699138641357e-01 -1.280969232320785522e-01
5.030014514923095703e-01 -6.035223975777626038e-02 -4.740375876426696777e-01
1.766972094774246216e-01 -7.896299660205841064e-02 -5.251346826553344727e-01
-1.297830641269683838e-01 -3.042855560779571533e-01 2.041184902191162109e-01
1.474917531013488770e-01 6.343445926904678345e-02 2.651489973068237305e-01
4.861468672752380371e-01 -2.770601212978363037e-01 1.767289936542510986e-01
3.789311647415161133e-01 8.467278629541397095e-02 2.530577480792999268e-01
2.507329583168029785e-01 1.075835004448890686e-01 -2.023195922374725342e-01
6.077530384063720703e-01 9.717825800180435181e-02 6.977386772632598877e-02
6.924666166305541992e-01 -1.601426601409912109e-01 2.391504049301147461e-01
-2.311994433403015137e-01 -2.134616672992706299e-01 -2.936789691448211670e-01
1.858693361282348633e-01 1.071667149662971497e-01 6.283789128065109253e-02
-2.525675892829895020e-01 -9.191316366195678711e-02 2.315608859062194824e-01
6.117371320724487305e-01 -1.033792495727539062e-01 3.815349340438842773e-01
2.642115652561187744e-01 -1.819791197776794434e-01 -4.903773069381713867e-01
3.571323752403259277e-01 -6.347656250000000000e-03 -4.863497614860534668e-01
3.823029696941375732e-01 -2.753076255321502686e-01 -2.764933109283447266e-01
1.708244681358337402e-01 -3.314121365547180176e-01 -1.425083279609680176e-01
-3.213172852993011475e-01 -1.658214330673217773e-01 -1.843746602535247803e-01
4.138306975364685059e-01 -1.599870175123214722e-01 4.644399583339691162e-01
2.234737277030944824e-01 9.151595085859298706e-02 1.965353786945343018e-01
1.976597458124160767e-01 -3.043843805789947510e-01 -2.669521570205688477e-01
1.656422615051269531e-01 7.533553987741470337e-02 -3.070959448814392090e-01
1.697992086410522461e-01 5.343787372112274170e-03 4.060781896114349365e-01
2.992251515388488770e-01 -2.325547337532043457e-01 4.273243546485900879e-01
1.291002035140991211e-01 -1.528490185737609863e-01 4.972647130489349365e-01
-8.257150650024414062e-02 -1.223268359899520874e-02 -3.498432338237762451e-01
2.130296081304550171e-01 8.691351860761642456e-02 -2.878835797309875488e-01
1.197180375456809998e-01 -3.340668678283691406e-01 1.713318824768066406e-01
-1.688933372497558594e-02 -3.381390571594238281e-01 -6.374514102935791016e-02
-3.132619559764862061e-01 -1.445381790399551392e-01 1.758225858211517334e-01
5.673106014728546143e-02 -2.735180258750915527e-01 -3.580101132392883301e-01
6.355224847793579102e-01 -1.642844080924987793e-01 -3.130667209625244141e-01
7.809236049652099609e-01 -6.598117202520370483e-02 -2.044268250465393066e-01
-2.988472580909729004e-03 7.161953300237655640e-02 -1.152562052011489868e-01
6.657810211181640625e-01 7.063316553831100464e-02 1.312186121940612793e-01
1.658386290073394775e-01 -1.116889342665672302e-01 5.021136403083801270e-01
-1.484787762165069580e-01 -1.375357061624526978e-02 2.198506593704223633e-01
-1.982515156269073486e-01 -2.941188812255859375e-01 1.564176678657531738e-01
3.128924369812011719e-01 -5.992706492543220520e-02 4.863807857036590576e-01
-1.521356105804443359e-01 -2.245076596736907959e-01 -3.519393205642700195e-01
-3.065563142299652100e-01 -2.027746140956878662e-01 -1.927211582660675049e-01
-2.641270160675048828e-01 -9.400849044322967529e-02 -2.514939010143280029e-01
7.538064718246459961e-01 -1.571848690509796143e-01 -9.201256930828094482e-02
4.465191066265106201e-02 -1.872864663600921631e-01 4.690351784229278564e-01
-1.710618734359741211e-01 -1.469310373067855835e-01 3.660702407360076904e-01
1.181312128901481628e-01 -8.821219205856323242e-03 4.118129909038543701e-01
1.926088333129882812e-02 -4.305943101644515991e-02 -4.608555734157562256e-01
7.792056798934936523e-01 -9.826071560382843018e-03 -1.879853308200836182e-01
-1.174735724925994873e-01 -1.130517572164535522e-01 3.950046002864837646e-01
4.665758013725280762e-01 -2.213577032089233398e-01 -3.588594496250152588e-01
6.110051870346069336e-01 -2.159266620874404907e-01 2.313643395900726318e-01
6.595286726951599121e-01 1.936659216880798340e-03 2.989045083522796631e-01
2.899194359779357910e-01 -3.141433596611022949e-01 -1.784192919731140137e-01
3.450326919555664062e-01 7.026113569736480713e-03 -4.742222130298614502e-01
6.263232827186584473e-01 -8.898557722568511963e-02 3.728888928890228271e-01
4.225884974002838135e-01 -2.124673873186111450e-01 4.085269570350646973e-01
3.737400770187377930e-01 -5.859640240669250488e-02 -5.133590698242187500e-01
3.890390396118164062e-01 -2.828583121299743652e-01 -2.435783147811889648e-01
1.719920635223388672e-01 -1.529778540134429932e-01 -5.150332450866699219e-01
3.357945680618286133e-01 -2.835124731063842773e-01 3.035880625247955322e-01
7.085533738136291504e-01 -1.856308728456497192e-01 -1.217597723007202148e-01
3.372940719127655029e-01 1.176711246371269226e-01 8.170987665653228760e-02
5.078710913658142090e-01 -2.740045785903930664e-01 -1.291109323501586914e-01
-1.740954816341400146e-01 -1.977222561836242676e-01 -3.626126646995544434e-01
4.513853788375854492e-01 -6.615535169839859009e-02 -4.945667684078216553e-01
3.294484615325927734e-01 -3.243223130702972412e-01 -1.632125303149223328e-02
8.107740879058837891e-01 -9.639997780323028564e-02 2.504445239901542664e-02
-2.261704504489898682e-01 -1.595448702573776245e-02 -8.193630725145339966e-02
4.425937831401824951e-01 -2.332030534744262695e-01 3.621981441974639893e-01
5.466802120208740234e-01 6.773827224969863892e-02 2.532147467136383057e-01
-4.792112112045288086e-02 -1.978198438882827759e-02 3.399698138236999512e-01
-1.127815842628479004e-01 -3.289519548416137695e-01 1.745675504207611084e-02
3.264060914516448975e-01 -2.782198786735534668e-01 -3.022855222225189209e-01
-7.463589310646057129e-02 2.459029108285903931e-02 1.968885660171508789e-01
-1.028795540332794189e-02 -2.859968841075897217e-01 3.308913111686706543e-01
5.521504878997802734e-01 3.059796243906021118e-02 -3.866978585720062256e-01
3.241180181503295898e-01 -3.255048692226409912e-01 -2.347860485315322876e-03
7.265166044235229492e-01 2.276454120874404907e-02 -2.373472750186920166e-01
4.285065531730651855e-01 7.080150395631790161e-02 2.886368334293365479e-01
4.050140380859375000e-01 1.238147690892219543e-01 5.897151306271553040e-03
1.114235669374465942e-01 -2.405128777027130127e-01 4.335930347442626953e-01
7.093181610107421875e-01 -1.919624954462051392e-01 8.287997543811798096e-02
7.962175607681274414e-01 -5.971373245120048523e-02 1.411694884300231934e-01
6.725337505340576172e-01 -4.755822569131851196e-02 3.271336853504180908e-01
2.414608001708984375e-01 -2.747809886932373047e-01 -3.452349305152893066e-01
2.731362283229827881e-01 1.203341260552406311e-01 -7.578639686107635498e-02
6.136137247085571289e-01 9.486765414476394653e-02 -1.489538550376892090e-01
5.162304043769836426e-01 -4.672919958829879761e-02 4.298381507396697998e-01
3.735042214393615723e-01 1.156811639666557312e-01 1.037901416420936584e-01
6.533554196357727051e-01 -1.516836881637573242e-01 3.069241344928741455e-01
4.180690646171569824e-02 -2.031618356704711914e-01 -4.612847864627838135e-01
6.663283109664916992e-01 -1.107050627470016479e-01 3.291950523853302002e-01
-2.433067262172698975e-01 -1.967590153217315674e-01 -2.960907816886901855e-01
1.132926940917968750e-01 -3.111198246479034424e-01 2.817249894142150879e-01
2.661605775356292725e-01 -7.381206750869750977e-02 -5.280727148056030273e-01
6.492433547973632812e-01 8.148772269487380981e-02 -1.707670390605926514e-01
-8.636140823364257812e-02 -3.181776106357574463e-01 -1.567429602146148682e-01
5.247284173965454102e-01 -2.274571657180786133e-01 3.082387745380401611e-01
2.319777011871337891e-01 9.034674614667892456e-02 -2.824340462684631348e-01
1.703900098800659180e-02 7.923012226819992065e-02 -6.872928142547607422e-02
3.205375969409942627e-01 -2.843399643898010254e-01 -2.859384119510650635e-01
4.499520361423492432e-02 2.683106809854507446e-02 3.071824312210083008e-01
5.068225860595703125e-01 -2.259974777698516846e-01 -3.167240917682647705e-01
4.662732481956481934e-01 -1.086555123329162598e-01 4.632482826709747314e-01
-1.480131149291992188e-01 4.134260118007659912e-03 1.569729745388031006e-01
7.552503347396850586e-01 -1.258229762315750122e-01 1.797666847705841064e-01
1.878504604101181030e-01 7.774423807859420776e-02 -3.101802468299865723e-01
7.599419355392456055e-01 -1.492936015129089355e-01 -1.047973334789276123e-01
7.350207865238189697e-02 -2.465948760509490967e-01 4.209831953048706055e-01
6.393680572509765625e-01 -7.316232472658157349e-02 -3.890912532806396484e-01
2.645523250102996826e-01 -2.111451327800750732e-01 -4.578724503517150879e-01
4.496326744556427002e-01 -6.057630851864814758e-02 4.612666666507720947e-01
4.448596835136413574e-01 1.141511127352714539e-01 1.025970354676246643e-01
2.662283778190612793e-01 6.390027701854705811e-03 4.213879406452178955e-01
-7.154086232185363770e-02 -2.148579359054565430e-01 -4.104949235916137695e-01
4.343542456626892090e-02 -2.896437346935272217e-01 -3.166830539703369141e-01
5.142009854316711426e-01 -7.480136305093765259e-02 4.412043392658233643e-01
1.088126897811889648e-01 4.435529559850692749e-02 3.007379472255706787e-01
5.927749276161193848e-01 -4.708853363990783691e-02 3.892043828964233398e-01
5.485250949859619141e-01 1.060146167874336243e-01 -1.621291041374206543e-01
1.378085166215896606e-01 7.868907600641250610e-02 -2.763488292694091797e-01
3.363881111145019531e-01 1.138377189636230469e-02 4.158248305320739746e-01
4.142158627510070801e-01 -1.983667910099029541e-01 -4.280013442039489746e-01
-5.451610684394836426e-02 -3.374394774436950684e-01 2.378695458173751831e-02
6.371045112609863281e-01 9.241399914026260376e-02 4.768709465861320496e-02
3.164552450180053711e-01 -3.009341061115264893e-01 -2.249993383884429932e-01
5.150603652000427246e-01 -2.770835161209106445e-01 1.086083501577377319e-01
8.159251213073730469e-01 -3.755915910005569458e-02 5.962395668029785156e-02
6.213668584823608398e-01 -2.237007766962051392e-01 1.836854219436645508e-01
-7.782468199729919434e-02 -3.761977702379226685e-02 3.467117249965667725e-01
-1.275582015514373779e-01 -2.425798773765563965e-02 -3.266089856624603271e-01
2.193301916122436523e-02 -2.036523222923278809e-01 4.531386196613311768e-01
-2.311503291130065918e-01 -2.324792444705963135e-01 2.684262394905090332e-01
5.244722962379455566e-02 3.614888340234756470e-02 -3.531084954738616943e-01
1.445028781890869141e-01 -3.170767426490783691e-01 2.568759024143218994e-01
-2.680399119853973389e-01 -2.578306198120117188e-01 1.614122986793518066e-01
3.623323440551757812e-01 -3.099223673343658447e-01 -1.277894526720046997e-01
-1.748971939086914062e-01 -3.121606409549713135e-01 -5.997978150844573975e-02
-4.918017983436584473e-02 -1.051223203539848328e-01 4.330779612064361572e-01
5.726446509361267090e-01 1.079524233937263489e-01 2.756382152438163757e-02
-4.384627938270568848e-02 -3.242972791194915771e-01 -1.557413935661315918e-01
1.672113239765167236e-01 -3.104546070098876953e-01 2.789465487003326416e-01
1.866499483585357666e-01 -3.306881189346313477e-01 -1.405682861804962158e-01
5.935606956481933594e-01 7.960956543684005737e-02 1.812881231307983398e-01
2.582044005393981934e-01 -3.179429173469543457e-01 -1.798685193061828613e-01
-1.268901228904724121e-01 -2.899583280086517334e-01 2.557131946086883545e-01
1.151531487703323364e-01 -1.835995912551879883e-02 4.241341352462768555e-01
4.103691875934600830e-02 -3.149096369743347168e-01 2.608852684497833252e-01
3.566741645336151123e-01 -2.313776314258575439e-01 -3.996357917785644531e-01
6.217674612998962402e-01 -2.421931624412536621e-01 1.516479253768920898e-02
2.021133005619049072e-01 7.242724299430847168e-03 4.107874631881713867e-01
3.649783730506896973e-01 -6.214709207415580750e-02 4.816570281982421875e-01
3.728537261486053467e-01 2.933593839406967163e-02 -4.435533583164215088e-01
1.157214269042015076e-01 -5.304002761840820312e-02 -5.030371546745300293e-01
4.975003600120544434e-01 -1.241529509425163269e-01 -4.616470634937286377e-01
-1.426699459552764893e-01 -3.733714669942855835e-02 2.843659818172454834e-01
5.822690129280090332e-01 -2.406753897666931152e-01 1.874671578407287598e-01
7.722972631454467773e-01 -1.294984370470046997e-01 -1.325399130582809448e-01
-9.454089403152465820e-02 -3.306128680706024170e-01 6.695909053087234497e-02
3.039003610610961914e-01 5.785814672708511353e-02 3.275018930435180664e-01
6.159536540508270264e-02 -2.918969988822937012e-01 -3.134579360485076904e-01
-1.108713746070861816e-01 -3.103968203067779541e-01 1.968705654144287109e-01
3.733481466770172119e-01 6.948446482419967651e-02 2.990804612636566162e-01
2.428033053874969482e-01 -3.193588256835937500e-01 -1.815782189369201660e-01
1.589722484350204468e-01 1.073705181479454041e-01 -2.775901928544044495e-03
-3.160625398159027100e-01 -2.287188023328781128e-01 -1.206814572215080261e-01
1.287494003772735596e-01 -2.575203031301498413e-02 4.377048015594482422e-01
-6.885612010955810547e-02 -1.807975471019744873e-01 4.298517107963562012e-01
1.490294337272644043e-01 -3.096785545349121094e-01 2.844431400299072266e-01
6.177660822868347168e-01 9.869401901960372925e-02 -1.027334928512573242e-01
-2.606537938117980957e-02 -1.881498843431472778e-02 -4.065956771373748779e-01
-5.998224020004272461e-02 -2.431673407554626465e-01 3.853936195373535156e-01
3.346331715583801270e-01 -2.492916882038116455e-01 3.876375854015350342e-01
3.234402835369110107e-02 7.937229424715042114e-02 5.567766726016998291e-02
3.026019334793090820e-01 8.589486032724380493e-02 -3.187282085418701172e-01
-3.364900052547454834e-01 -1.105870306491851807e-01 9.683176875114440918e-03
-3.678619861602783203e-02 5.760281533002853394e-02 8.535844832658767700e-02
7.816488742828369141e-01 -1.387662738561630249e-01 -1.617291569709777832e-02
-2.324923574924468994e-01 -1.533980369567871094e-01 -3.272858858108520508e-01
3.494995534420013428e-01 -1.872094273567199707e-01 -4.665574729442596436e-01
5.092917680740356445e-01 7.561337202787399292e-02 2.494089007377624512e-01
4.401492178440093994e-01 -2.852237522602081299e-01 -1.772729158401489258e-01
2.339170426130294800e-01 -3.355119824409484863e-01 -4.947554320096969604e-02
1.211293712258338928e-01 9.755798429250717163e-02 -1.393876373767852783e-01
2.942135334014892578e-01 7.758235186338424683e-02 -3.434983789920806885e-01
-2.616066932678222656e-01 -3.712788224220275879e-02 2.650265581905841827e-03
8.502694964408874512e-02 -3.008497357368469238e-01 -2.894157171249389648e-01
5.042062997817993164e-01 1.069354489445686340e-01 -1.964575946331024170e-01
8.892954885959625244e-02 -2.200703173875808716e-01 4.539769291877746582e-01
-9.790325164794921875e-02 -3.314253985881805420e-01 2.587946876883506775e-02
-2.019339799880981445e-02 5.244746059179306030e-02 -2.228023409843444824e-01
5.009389519691467285e-01 4.446545988321304321e-02 3.287927806377410889e-01
2.824321091175079346e-01 -2.684302926063537598e-01 -3.485392332077026367e-01
7.872422039508819580e-02 1.149825751781463623e-03 3.799491822719573975e-01
-1.384685635566711426e-01 -2.619481682777404785e-01 -3.008489906787872314e-01
4.513784050941467285e-01 8.722987025976181030e-02 2.326556146144866943e-01
1.483443975448608398e-01 7.527966052293777466e-02 -2.970055341720581055e-01
-2.576940953731536865e-01 -4.573830217123031616e-02 9.720282256603240967e-02
-3.194668591022491455e-01 -2.439554035663604736e-01 2.336290106177330017e-02
-3.458481729030609131e-01 -1.999127268791198730e-01 -6.848794221878051758e-02
1.966754049062728882e-01 7.806711643934249878e-02 2.391895949840545654e-01
5.807853937149047852e-01 -1.630371361970901489e-01 3.658298552036285400e-01
3.562812805175781250e-01 -3.171897530555725098e-01 9.891766309738159180e-02
4.061002731323242188e-01 -3.070128560066223145e-01 9.967118501663208008e-02
7.420436143875122070e-01 -1.611820310354232788e-01 -1.217450425028800964e-01
-2.088973224163055420e-01 -1.337605714797973633e-02 -1.454113721847534180e-01
-2.373532652854919434e-01 -2.639644145965576172e-01 2.000182867050170898e-01
2.215413004159927368e-01 -3.031755983829498291e-01 2.911950647830963135e-01
-5.846461653709411621e-02 5.741824954748153687e-02 8.864700794219970703e-05
4.263983666896820068e-01 9.598352760076522827e-02 -2.801814079284667969e-01
4.126214385032653809e-01 1.099777296185493469e-01 1.391828954219818115e-01
-3.280738294124603271e-01 -1.761093884706497192e-01 -1.640857458114624023e-01
-1.490637660026550293e-03 -1.676978766918182373e-01 -4.749444425106048584e-01
4.367673993110656738e-01 -3.006461560726165771e-01 -5.866792798042297363e-02
4.344281554222106934e-02 8.068656176328659058e-02 -1.473742723464965820e-01
7.017014026641845703e-01 6.681738048791885376e-02 -1.406944096088409424e-01
7.594734430313110352e-01 -1.590487211942672729e-01 3.274150565266609192e-02
1.261219680309295654e-01 1.010097488760948181e-01 -1.033755764365196228e-01
2.944382429122924805e-01 3.646839410066604614e-02 3.732452690601348877e-01
2.428166270256042480e-01 1.154700294137001038e-01 -1.222960650920867920e-01
8.344760537147521973e-02 -2.800344526767730713e-01 3.648495972156524658e-01
3.877890706062316895e-01 -2.202608734369277954e-01 -4.058604836463928223e-01
6.298370361328125000e-01 8.097536116838455200e-02 1.358052790164947510e-01
-2.516393661499023438e-01 -2.880674898624420166e-01 9.699305519461631775e-04
2.056983113288879395e-01 -2.746677398681640625e-02 -5.024284124374389648e-01
3.033541142940521240e-01 -3.240333199501037598e-01 1.226801648736000061e-01
6.357105076313018799e-02 -2.077514380216598511e-01 -4.611961841583251953e-01
4.935972392559051514e-01 -2.719800472259521484e-01 1.923584938049316406e-01
7.080487906932830811e-02 -2.180508673191070557e-01 4.529226720333099365e-01
3.870826959609985352e-01 7.406502217054367065e-02 2.853656411170959473e-01
4.458114504814147949e-03 -3.072608709335327148e-01 -2.532741725444793701e-01
1.527675092220306396e-01 -3.361942470073699951e-01 1.464891731739044189e-01
-3.419649600982666016e-02 5.611930042505264282e-02 1.031523644924163818e-01
8.176169395446777344e-01 -6.756089627742767334e-02 -7.478360831737518311e-02
-1.298905313014984131e-01 -2.303458452224731445e-01 3.613502979278564453e-01
1.804400682449340820e-01 -6.338784098625183105e-02 4.835351109504699707e-01
5.943928956985473633e-01 -2.411756217479705811e-01 1.584416329860687256e-01
1.726565659046173096e-01 9.945314377546310425e-02 1.153726205229759216e-01
3.841996192932128906e-02 -1.556417644023895264e-01 -4.927043914794921875e-01
4.008114933967590332e-01 -3.078997433185577393e-01 -7.193449139595031738e-02
6.841104626655578613e-01 -5.754195898771286011e-02 -3.488776981830596924e-01
5.827659964561462402e-01 1.082826480269432068e-01 -2.345075085759162903e-02
4.126291275024414062e-01 6.267912685871124268e-03 -4.655153751373291016e-01
5.358770489692687988e-02 -3.121123611927032471e-01 2.735204398632049561e-01
1.145880892872810364e-01 -3.435812294483184814e-01 -3.442735224962234497e-02
1.021768897771835327e-01 5.747806280851364136e-02 -3.273666501045227051e-01
2.486995607614517212e-01 1.136520430445671082e-01 -1.507912576198577881e-01
6.088914275169372559e-01 8.287595957517623901e-02 -2.206912636756896973e-01
-1.313184499740600586e-01 -4.654420912265777588e-02 -3.600788414478302002e-01
7.833586633205413818e-02 2.275877445936203003e-02 -3.986136019229888916e-01
-2.084471881389617920e-01 -8.092019706964492798e-02 -3.184188902378082275e-01
4.978285133838653564e-01 -1.467852443456649780e-01 -4.448330104351043701e-01
3.423005342483520508e-03 -3.416863381862640381e-01 -2.767743170261383057e-02
4.263699054718017578e-01 1.227929964661598206e-01 -9.842030704021453857e-02
2.686864137649536133e-01 1.204713806509971619e-01 -4.697017371654510498e-02
2.205867469310760498e-01 1.149966791272163391e-01 -8.986964821815490723e-02
-2.405889928340911865e-01 -1.409615874290466309e-01 -3.173031210899353027e-01
9.825888276100158691e-02 -3.348400890827178955e-01 1.677186191082000732e-01
-2.087914049625396729e-01 -2.170339226722717285e-01 -3.130612075328826904e-01
-1.572744548320770264e-01 -6.181626394391059875e-02 -3.541025519371032715e-01
2.597873806953430176e-01 -2.796526998281478882e-02 -5.072529315948486328e-01
6.482546329498291016e-01 3.768322616815567017e-02 -3.060587048530578613e-01
-2.389785945415496826e-01 -5.406850948929786682e-02 1.773372888565063477e-01
2.684760391712188721e-01 -2.773614823818206787e-01 3.510452806949615479e-01
-1.327723264694213867e-02 -3.150772452354431152e-01 2.429122030735015869e-01
-2.076340317726135254e-01 -5.403839051723480225e-03 -8.170753717422485352e-02
-1.072030961513519287e-01 3.592669963836669922e-05 2.360644340515136719e-01
4.190717637538909912e-02 6.774521619081497192e-02 -2.328403592109680176e-01
1.423436403274536133e-02 7.787107676267623901e-02 9.489519521594047546e-03
4.395743012428283691e-01 -1.119568496942520142e-01 4.727512896060943604e-01
-5.454817414283752441e-02 -7.833082228899002075e-02 -4.487144947052001953e-01
3.664966523647308350e-01 9.092044085264205933e-02 -3.057691454887390137e-01
6.117706298828125000e-01 -5.887704342603683472e-02 -4.117695391178131104e-01
6.341357827186584473e-01 4.420534521341323853e-02 2.491311430931091309e-01
4.021347463130950928e-01 2.548336982727050781e-03 4.207336306571960449e-01
-2.104083895683288574e-01 -2.444937229156494141e-01 -2.706781923770904541e-01
5.724740028381347656e-01 -2.413515746593475342e-01 -1.861136853694915771e-01
6.795705854892730713e-02 8.589152246713638306e-02 -1.511739194393157959e-01
-1.384567320346832275e-01 1.326883584260940552e-02 1.339229941368103027e-01
-1.159923374652862549e-01 -3.121193051338195801e-01 -1.600462198257446289e-01
3.313285112380981445e-01 1.239836290478706360e-01 -5.450790002942085266e-02
2.144135236740112305e-01 9.233943372964859009e-02 -2.654641866683959961e-01
-1.532763838768005371e-01 -2.548737823963165283e-02 -2.976655960083007812e-01
1.413438469171524048e-01 1.039786711335182190e-01 -9.536191076040267944e-02
5.125486850738525391e-01 1.173481717705726624e-01 -8.634720742702484131e-02
-1.960039138793945312e-02 -3.625413775444030762e-02 -4.332240521907806396e-01
6.833695173263549805e-01 2.863228321075439453e-03 -3.205062448978424072e-01
3.339281082153320312e-01 -3.240255713462829590e-01 7.840454578399658203e-03
-1.481929123401641846e-01 -1.857119202613830566e-01 -3.906680345535278320e-01
-9.788870811462402344e-04 4.085389524698257446e-02 2.265087962150573730e-01
6.765023469924926758e-01 -1.985234022140502930e-01 -1.551157236099243164e-01
-3.084408938884735107e-01 -9.154482930898666382e-02 9.860700368881225586e-02
6.461830139160156250e-01 -7.883075624704360962e-02 3.569695055484771729e-01
4.191590547561645508e-01 -2.965571880340576172e-01 -1.385352909564971924e-01
-1.224905848503112793e-01 -4.610618203878402710e-02 3.211775720119476318e-01
2.157495170831680298e-01 4.977267235517501831e-02 -3.971321284770965576e-01
-2.987644076347351074e-02 -2.584291994571685791e-02 3.633955121040344238e-01
2.463393509387969971e-01 -2.957742512226104736e-01 3.072613775730133057e-01
-1.498547792434692383e-01 -3.161874115467071533e-01 -8.401519805192947388e-02
-1.406071484088897705e-01 -6.666220724582672119e-02 -3.759323060512542725e-01
1.811769157648086548e-01 1.052796617150306702e-01 7.612125575542449951e-02
3.442713618278503418e-01 -1.725258827209472656e-01 4.776502251625061035e-01
2.282598316669464111e-01 -4.112388938665390015e-02 -5.141900777816772461e-01
-2.849597632884979248e-01 -2.621206641197204590e-01 9.879476577043533325e-02
5.044443011283874512e-01 6.409383565187454224e-02 -3.484498858451843262e-01
4.497519135475158691e-02 -3.328045904636383057e-01 1.753720939159393311e-01
-8.399194478988647461e-02 9.065605700016021729e-03 -2.986137270927429199e-01
5.238255262374877930e-01 -1.664211601018905640e-01 4.046736359596252441e-01
2.333409339189529419e-01 -2.400015592575073242e-01 -4.198669791221618652e-01
7.507935166358947754e-03 -2.193116247653961182e-01 4.364657402038574219e-01
6.907894611358642578e-01 -1.995763480663299561e-01 1.124720200896263123e-01
7.032611370086669922e-01 2.018625289201736450e-02 -2.750039398670196533e-01
7.461621761322021484e-01 -1.308235824108123779e-01 -2.010171115398406982e-01
5.555500984191894531e-01 -1.741901040077209473e-01 3.735263645648956299e-01
7.862437963485717773e-01 -5.751825869083404541e-03 1.222152784466743469e-01
1.432240307331085205e-01 1.051562502980232239e-01 -7.163040339946746826e-02
3.888375163078308105e-01 1.203277930617332458e-01 -1.431892216205596924e-01
-2.509471178054809570e-01 -7.044506818056106567e-02 1.944517791271209717e-01
6.634950637817382812e-01 3.359585255384445190e-02 -2.982750236988067627e-01
-5.527514219284057617e-02 4.330959171056747437e-02 -2.111335396766662598e-01
6.994123458862304688e-01 -1.688084453344345093e-01 -2.076650559902191162e-01
-2.737815678119659424e-01 -2.070141732692718506e-01 -2.457397878170013428e-01
2.342875599861145020e-01 -3.058654963970184326e-01 2.770933210849761963e-01
-2.854402959346771240e-01 -2.059429287910461426e-01 2.210173010826110840e-01
6.203576326370239258e-01 -2.286740541458129883e-01 -1.484173536300659180e-01
-1.828266680240631104e-01 -3.125108182430267334e-01 -1.658960431814193726e-02
5.988403558731079102e-01 -2.501145601272583008e-01 6.652859598398208618e-02
4.165532886981964111e-01 -1.251101493835449219e-02 4.350768327713012695e-01
7.744559049606323242e-01 1.648754626512527466e-02 1.015570461750030518e-01
-1.151250302791595459e-01 -3.194490969181060791e-01 1.425522565841674805e-01
4.580662250518798828e-01 -2.105289846658706665e-01 -3.851319253444671631e-01
-1.233599185943603516e-01 -2.823175489902496338e-01 2.789235711097717285e-01
7.692829370498657227e-01 -1.467575877904891968e-02 1.753049790859222412e-01
6.811842918395996094e-01 -6.143250688910484314e-02 3.228076696395874023e-01
6.469477415084838867e-01 -6.135270744562149048e-02 -3.839153051376342773e-01
6.238286495208740234e-01 9.407999366521835327e-02 6.401821225881576538e-02
5.716850757598876953e-01 -2.467015981674194336e-01 1.794413924217224121e-01
2.721977829933166504e-01 -3.175069689750671387e-01 2.040926218032836914e-01
5.872457623481750488e-01 -2.261915504932403564e-01 2.354208528995513916e-01
7.444788217544555664e-01 -6.489846855401992798e-02 2.450433075428009033e-01
2.431236952543258667e-01 -9.960259497165679932e-02 5.042437314987182617e-01
4.133275747299194336e-01 3.233667463064193726e-02 -4.331412315368652344e-01
4.058929681777954102e-01 -2.101899981498718262e-01 4.197053611278533936e-01
5.612290501594543457e-01 -2.648119628429412842e-01 6.320035457611083984e-02
7.589261531829833984e-01 -1.387634575366973877e-01 1.411255598068237305e-01
-2.428520917892456055e-01 -3.293982893228530884e-02 -1.352976560592651367e-01
-3.083538711071014404e-01 -7.507644593715667725e-02 -2.525426633656024933e-02
4.191280901432037354e-02 -3.347794115543365479e-01 -1.288417577743530273e-01
4.314762949943542480e-01 -3.042109310626983643e-01 -3.966669552028179169e-03
6.121846437454223633e-01 9.401354938745498657e-02 8.652256429195404053e-02
2.262369990348815918e-01 -3.375027775764465332e-01 5.845754593610763550e-02
7.333583235740661621e-01 4.566041380167007446e-02 -1.625040769577026367e-01
1.909287869930267334e-01 -3.305750787258148193e-01 1.728698015213012695e-01
-8.396002650260925293e-02 -1.555462777614593506e-01 4.266724586486816406e-01
-8.960068225860595703e-02 -2.709575593471527100e-01 -3.131084740161895752e-01
2.486830204725265503e-01 9.200886636972427368e-02 2.054253518581390381e-01
7.222700715065002441e-01 1.660799235105514526e-02 -2.546303570270538330e-01
5.584203600883483887e-01 -6.243271380662918091e-02 4.156465530395507812e-01
3.057312965393066406e-01 1.116773858666419983e-01 -2.006619572639465332e-01
5.706844925880432129e-01 1.098897680640220642e-01 -7.247002422809600830e-02
6.293255090713500977e-01 -1.964500546455383301e-01 -2.517987489700317383e-01
-1.544351279735565186e-01 -3.189850151538848877e-01 -3.668894246220588684e-02
2.449598014354705811e-01 -1.155494973063468933e-01 5.065662860870361328e-01
3.899292349815368652e-01 -1.085146367549896240e-01 -5.091444253921508789e-01
-2.852719724178314209e-01 -5.446527898311614990e-02 -1.014660205692052841e-02
4.064870476722717285e-01 1.185310557484626770e-01 7.729575037956237793e-02
7.698170840740203857e-02 4.237278550863265991e-02 -3.535919189453125000e-01
3.893571496009826660e-01 -2.516444921493530273e-01 -3.401364982128143311e-01
