-3.219069447368383408e-03 2.185685932636260986e-01 -4.482095837593078613e-01
1.450674831867218018e-01 -3.515330553054809570e-01 1.048368066549301147e-01
1.682467907667160034e-01 -3.242778480052947998e-01 1.258797198534011841e-01
-4.540194571018218994e-02 3.199623227119445801e-01 3.745443820953369141e-01
-2.709375917911529541e-01 -1.780557334423065186e-01 2.711787819862365723e-02
1.354608088731765747e-01 1.785259991884231567e-01 -3.964545130729675293e-01
-1.783200800418853760e-01 1.288809925317764282e-01 -3.995138704776763916e-01
-1.660596281290054321e-01 3.337962329387664795e-01 -8.543245494365692139e-02
-2.726812660694122314e-01 3.327168151736259460e-02 2.118390053510665894e-01
-1.006652638316154480e-01 2.267368286848068237e-01 4.468955099582672119e-01
-1.772800087928771973e-01 -2.526878416538238525e-01 -3.224886953830718994e-01
-2.422249466180801392e-01 2.326822280883789062e-01 6.190291047096252441e-02
-4.953219089657068253e-03 -4.114749133586883545e-01 1.229658201336860657e-01
-2.194890826940536499e-01 -2.644025385379791260e-01 -1.792686283588409424e-01
2.524974942207336426e-01 1.798465996980667114e-01 1.421308070421218872e-01
-1.198494583368301392e-01 -3.911444544792175293e-01 -6.255225092172622681e-02
-1.976651400327682495e-01 2.848319113254547119e-01 -1.380184888839721680e-01
-2.025768011808395386e-01 -8.705067634582519531e-02 3.917052745819091797e-01
-2.280493378639221191e-01 -1.256826668977737427e-01 -3.302434682846069336e-01
1.013588346540927887e-02 9.582214802503585815e-02 5.584595799446105957e-01
-2.446988821029663086e-01 -2.420724928379058838e-01 -8.317257463932037354e-02
1.163394302129745483e-01 1.769417896866798401e-02 5.242428183555603027e-01
3.486545383930206299e-02 3.818378746509552002e-01 2.483415752649307251e-01
2.448502033948898315e-01 3.804428875446319580e-02 3.074661195278167725e-01
-2.473193109035491943e-01 8.163624256849288940e-02 2.888323366641998291e-01
2.306507378816604614e-01 -2.332414835691452026e-01 1.094843372702598572e-01
-1.082583144307136536e-01 3.765716254711151123e-01 -9.360215067863464355e-02
2.304968088865280151e-01 4.269646108150482178e-02 -2.957734465599060059e-01
-2.438370585441589355e-01 -1.262542605400085449e-01 -2.865307033061981201e-01
-1.452409923076629639e-01 1.274736225605010986e-01 4.667068421840667725e-01
1.867896616458892822e-01 3.133352994918823242e-01 -1.882412284612655640e-02
-2.760069966316223145e-01 4.080256819725036621e-02 -1.929578185081481934e-01
-2.829823791980743408e-01 -1.309275031089782715e-01 3.107704780995845795e-02
-1.041663065552711487e-02 1.397400442510843277e-02 5.684076547622680664e-01
1.993210613727569580e-01 2.975256741046905518e-01 8.948291093111038208e-02
1.049224063754081726e-01 -3.894427716732025146e-01 -4.614396393299102783e-02
-5.085497349500656128e-02 3.201899826526641846e-01 -3.146497905254364014e-01
2.425021082162857056e-01 1.999342739582061768e-01 -9.205453842878341675e-02
-2.446221560239791870e-01 -2.272614389657974243e-01 -1.427869647741317749e-01
-2.746565937995910645e-01 -1.667956411838531494e-01 -4.059568792581558228e-02
-2.733721435070037842e-01 1.131175085902214050e-01 1.478349417448043823e-01
2.771823704242706299e-01 6.187639012932777405e-02 -7.925383001565933228e-02
-2.430046945810317993e-01 2.287288159132003784e-01 7.864274829626083374e-02
-4.042248427867889404e-02 4.093269109725952148e-01 1.088214591145515442e-01
-5.005694925785064697e-02 3.717726469039916992e-01 -2.020124197006225586e-01
-2.141886949539184570e-01 -2.995226681232452393e-01 1.813727989792823792e-02
2.684468328952789307e-01 -1.002702340483665466e-01 1.519872546195983887e-01
7.766590267419815063e-02 3.821640908718109131e-01 2.011714130640029907e-01
-2.842140197753906250e-01 1.048655509948730469e-01 -4.325325787067413330e-02
-9.930259734392166138e-02 3.838017284870147705e-01 1.386401802301406860e-01
2.197007983922958374e-01 -1.711800843477249146e-01 2.828183472156524658e-01
-1.616844385862350464e-01 -1.216825246810913086e-01 -4.481394886970520020e-01
1.374519169330596924e-01 6.790927145630121231e-04 5.043178200721740723e-01
-7.811928540468215942e-02 -1.832958012819290161e-01 4.816124439239501953e-01
9.034021198749542236e-02 -3.885256946086883545e-01 -1.261553615331649780e-01
1.983687281608581543e-01 -1.308802962303161621e-01 3.720264732837677002e-01
-2.808245122432708740e-01 1.196515932679176331e-01 5.713436752557754517e-02
-5.683515965938568115e-02 -3.225132822990417480e-02 5.537852048873901367e-01
6.182099692523479462e-03 -3.038080595433712006e-02 5.656200647354125977e-01
-1.587821543216705322e-01 2.776787579059600830e-01 3.062845170497894287e-01
-1.617628931999206543e-01 2.512484788894653320e-01 -3.033712208271026611e-01
1.667898893356323242e-01 -1.353000551462173462e-01 4.242727160453796387e-01
1.951871067285537720e-01 1.404927372932434082e-01 -3.285866677761077881e-01
2.629399299621582031e-01 -3.863510116934776306e-02 2.326381951570510864e-01
-2.178841233253479004e-01 -2.002707123756408691e-02 3.791679739952087402e-01
2.841446995735168457e-01 -1.899875886738300323e-02 -2.687790431082248688e-02
-1.320193801075220108e-02 -4.195420742034912109e-01 -9.687127172946929932e-02
6.962921470403671265e-04 1.316328346729278564e-01 5.469496846199035645e-01
-2.332921028137207031e-01 2.319354861974716187e-01 1.491557657718658447e-01
1.527674794197082520e-01 -2.208182215690612793e-01 -3.588960468769073486e-01
8.753626793622970581e-02 3.942476212978363037e-01 1.017678007483482361e-01
-2.271755784749984741e-01 2.615585625171661377e-01 6.123908609151840210e-02
1.506477892398834229e-01 9.919699281454086304e-03 -4.499585330486297607e-01
2.270916700363159180e-01 -2.423366606235504150e-01 -8.309182524681091309e-02
1.764347553253173828e-01 8.889890462160110474e-02 4.451585412025451660e-01
8.313783258199691772e-02 -3.772138953208923340e-01 1.790724098682403564e-01
-8.665732108056545258e-03 -3.256269693374633789e-01 -3.664574623107910156e-01
6.305734813213348389e-02 2.158863544464111328e-01 -4.300042092800140381e-01
-2.912311255931854248e-01 -7.843042910099029541e-02 -5.570805072784423828e-02
1.561111658811569214e-01 2.676720917224884033e-01 -2.625172734260559082e-01
2.741664648056030273e-01 9.832424670457839966e-02 -5.837143212556838989e-02
-1.863585710525512695e-01 1.605277210474014282e-01 3.866274356842041016e-01
-2.577247917652130127e-01 -2.156969904899597168e-01 -5.566670745611190796e-02
-1.489990949630737305e-01 3.334206044673919678e-01 -1.540326923131942749e-01
2.555372118949890137e-01 -1.681415438652038574e-01 1.173616498708724976e-01
2.546258568763732910e-01 1.466353088617324829e-01 -1.280031055212020874e-01
7.627248764038085938e-02 2.442223392426967621e-02 5.506761074066162109e-01
-1.579513102769851685e-01 3.474895358085632324e-01 -4.359285533428192139e-02
-1.636919230222702026e-01 6.742273271083831787e-02 -4.492442905902862549e-01
-2.343689650297164917e-01 2.169314473867416382e-01 -1.570864915847778320e-01
-1.390054821968078613e-01 2.812967598438262939e-01 -2.939600944519042969e-01
7.603735662996768951e-03 -3.821791112422943115e-01 -2.513803243637084961e-01
-1.320065408945083618e-01 3.566033542156219482e-01 -1.165756359696388245e-01
2.817641198635101318e-01 -6.535065919160842896e-02 -5.956925451755523682e-05
-3.264871239662170410e-02 4.016730189323425293e-01 1.704449951648712158e-01
-2.088302969932556152e-01 -1.635093241930007935e-01 -3.491793870925903320e-01
1.113526672124862671e-01 1.757195591926574707e-01 4.813905656337738037e-01
3.415227681398391724e-02 -4.195219874382019043e-01 -8.942760527133941650e-03
1.681092660874128342e-03 -3.324900865554809570e-01 3.386837542057037354e-01
5.543626844882965088e-02 -1.379708051681518555e-01 5.206272006034851074e-01
2.213358879089355469e-02 -2.382360547780990601e-01 4.574178755283355713e-01
-2.277214080095291138e-01 -1.998873651027679443e-01 -2.658811509609222412e-01
2.612870931625366211e-01 1.698190867900848389e-01 9.432340972125530243e-03
1.873645484447479248e-01 2.988054752349853516e-01 -9.579339623451232910e-02
-1.154774725437164307e-01 2.405700236558914185e-01 -3.786756694316864014e-01
1.046995520591735840e-01 -1.283995509147644043e-01 4.969481825828552246e-01
2.642259895801544189e-01 1.450152397155761719e-01 -5.787049978971481323e-02
4.309850186109542847e-02 2.041091471910476685e-01 5.023215413093566895e-01
2.144772559404373169e-01 -2.114390134811401367e-01 2.432053089141845703e-01
2.204332798719406128e-01 -1.921431273221969604e-01 2.529369294643402100e-01
1.138887628912925720e-01 3.405123949050903320e-01 -1.934811174869537354e-01
-2.638396620750427246e-01 -2.981426008045673370e-02 -2.575087845325469971e-01
-1.940707564353942871e-01 -1.665232144296169281e-02 4.243152737617492676e-01
2.471241801977157593e-01 1.811922043561935425e-01 1.784711033105850220e-01
1.447619050741195679e-01 -1.977805793285369873e-01 4.068410694599151611e-01
-2.151755616068840027e-04 -4.063660502433776855e-01 -1.723028421401977539e-01
-9.521486610174179077e-02 2.054924070835113525e-01 4.690675437450408936e-01
-1.546442359685897827e-01 -2.719281613826751709e-01 3.117482364177703857e-01
-1.821990758180618286e-01 -1.447677314281463623e-01 3.966268002986907959e-01
2.532997727394104004e-01 -1.549194604158401489e-01 -1.338894367218017578e-01
1.398717164993286133e-01 -3.222357928752899170e-01 2.270388305187225342e-01
2.222046703100204468e-01 -2.543065249919891357e-01 8.761881291866302490e-02
1.514520049095153809e-01 -3.259262442588806152e-01 -1.853475868701934814e-01
8.720080554485321045e-02 3.961176872253417969e-01 1.898792572319507599e-03
2.065869420766830444e-01 -1.512296199798583984e-01 3.379608988761901855e-01
1.442211493849754333e-02 -4.216216504573822021e-01 2.979262918233871460e-02
2.274790108203887939e-01 -1.375541239976882935e-01 2.947272062301635742e-01
-2.579925954341888428e-01 1.784247718751430511e-02 -2.741645872592926025e-01
-8.728518337011337280e-02 3.771251440048217773e-01 2.001665383577346802e-01
4.528591036796569824e-02 -3.310351073741912842e-01 3.284713625907897949e-01
2.129805088043212891e-01 2.171351015567779541e-01 2.678751051425933838e-01
-2.424486875534057617e-01 2.255603224039077759e-01 -7.624819874763488770e-02
1.276533752679824829e-01 3.154763877391815186e-01 -2.275385856628417969e-01
1.444825083017349243e-01 3.183914721012115479e-02 -4.545213878154754639e-01
1.995756626129150391e-01 -1.738119870424270630e-02 4.160113334655761719e-01
1.681517809629440308e-02 -4.222591221332550049e-01 -3.327056020498275757e-02
-1.351303011178970337e-01 -1.667549461126327515e-01 -4.559794068336486816e-01
-2.403986752033233643e-01 -5.413910746574401855e-02 3.185570538043975830e-01
-2.512556612491607666e-01 2.088544964790344238e-01 -6.232693046331405640e-02
5.144624039530754089e-03 -4.134940207004547119e-01 1.094490438699722290e-01
-3.926305472850799561e-02 4.080024659633636475e-01 1.225797981023788452e-01
-1.710121482610702515e-01 -3.053974509239196777e-01 -2.465799748897552490e-01
7.752969115972518921e-02 -1.224695816636085510e-01 -5.010282993316650391e-01
2.760326862335205078e-01 -1.034723892807960510e-01 4.935824871063232422e-02
-2.612852156162261963e-01 -3.030460514128208160e-02 -2.666414082050323486e-01
2.736567892134189606e-02 -4.178321659564971924e-01 -7.860689610242843628e-02
-2.045171260833740234e-01 -2.117864042520523071e-01 -3.143341541290283203e-01
1.116526424884796143e-01 1.456867158412933350e-01 -4.452656805515289307e-01
-2.688575685024261475e-01 -2.779969014227390289e-02 2.307667732238769531e-01
2.499428838491439819e-01 -1.146747544407844543e-01 2.368553131818771362e-01
1.743070781230926514e-01 -5.393964797258377075e-02 4.499938488006591797e-01
-1.217433437705039978e-01 1.290376782417297363e-01 4.911403954029083252e-01
-7.530468702316284180e-02 1.550386548042297363e-01 -4.800435006618499756e-01
-2.762842476367950439e-01 1.362198740243911743e-01 -5.709254741668701172e-02
-2.242157161235809326e-01 6.647099554538726807e-02 3.573517799377441406e-01
1.185961663722991943e-01 7.673858106136322021e-02 -4.708822369575500488e-01
9.183274209499359131e-02 -1.750551015138626099e-01 -4.660615921020507812e-01
-1.846486777067184448e-01 2.979511618614196777e-01 -1.496261209249496460e-01
-2.055531591176986694e-01 1.880519688129425049e-01 -2.972833812236785889e-01
-2.886916995048522949e-01 -6.900833547115325928e-02 -1.056560799479484558e-01
1.353425979614257812e-01 -1.988584399223327637e-01 -4.041303992271423340e-01
1.536179780960083008e-01 -2.527691125869750977e-01 -3.209635019302368164e-01
2.222701013088226318e-01 2.615521848201751709e-01 8.097662776708602905e-02
5.245234072208404541e-02 -4.145561158657073975e-01 -2.297481335699558258e-02
-7.045470178127288818e-02 1.462455987930297852e-01 5.213267207145690918e-01
1.571448743343353271e-01 -2.630455791950225830e-01 -2.999568581581115723e-01
2.108650952577590942e-01 4.408929869532585144e-02 3.939529061317443848e-01
2.147175669670104980e-01 1.981067806482315063e-01 2.894743084907531738e-01
1.675424277782440186e-01 -2.142804414033889771e-01 -3.392830789089202881e-01
-2.239358723163604736e-01 2.529502809047698975e-01 -1.086921766400337219e-01
-1.606983505189418793e-02 5.817468091845512390e-02 5.648595094680786133e-01
2.801262773573398590e-02 -2.616343498229980469e-01 -4.368744790554046631e-01
-2.801613211631774902e-01 -1.151005504652857780e-03 1.794528514146804810e-01
1.292026787996292114e-01 3.712887763977050781e-01 7.617611438035964966e-02
1.938505768775939941e-01 -3.046101629734039307e-01 4.547630995512008667e-02
2.281327396631240845e-01 1.008420959115028381e-01 3.351563811302185059e-01
-1.878393441438674927e-01 1.324152648448944092e-01 4.020594358444213867e-01
-2.139934301376342773e-01 2.014099955558776855e-01 -2.586058676242828369e-01
1.768383979797363281e-01 -1.281363237649202347e-02 4.542913734912872314e-01
-4.223203659057617188e-02 1.954970508813858032e-02 5.622462630271911621e-01
3.681496530771255493e-02 3.334048092365264893e-01 3.585461974143981934e-01
-2.889399826526641846e-01 -4.749332368373870850e-02 1.073348894715309143e-01
2.286642789840698242e-01 8.819754421710968018e-02 3.396647274494171143e-01
2.356788516044616699e-01 -1.072563305497169495e-01 -2.598165273666381836e-01
-1.720771342515945435e-01 2.798429429531097412e-01 -2.329927682876586914e-01
2.841180562973022461e-01 4.521990939974784851e-02 4.874170571565628052e-02
-1.679971218109130859e-01 2.762637436389923096e-01 2.886857390403747559e-01
-9.106662869453430176e-02 1.725689917802810669e-01 4.944814741611480713e-01
-1.140160858631134033e-01 -3.755179047584533691e-01 1.486559361219406128e-01
-6.211192160844802856e-02 4.058255553245544434e-01 -1.876500062644481659e-02
2.127895951271057129e-01 -2.377504855394363403e-01 1.988331526517868042e-01
5.700675398111343384e-02 -2.698216736316680908e-01 -4.143291711807250977e-01
2.044758349657058716e-01 -2.788959741592407227e-01 -1.038141027092933655e-01
1.505340039730072021e-01 3.210351467132568359e-01 -1.618590503931045532e-01
1.480604261159896851e-01 2.478848099708557129e-01 -3.064138293266296387e-01
3.706873394548892975e-03 4.164064526557922363e-01 6.572223454713821411e-02
-2.188183814287185669e-01 -2.468573153018951416e-01 1.934154778718948364e-01
-1.454673558473587036e-01 1.064389422535896301e-01 -4.538379013538360596e-01
-6.399767845869064331e-02 3.440876007080078125e-01 3.189091682434082031e-01
2.109790444374084473e-01 -2.742656767368316650e-01 8.513211458921432495e-02
1.596991270780563354e-01 -7.491741329431533813e-02 4.636086523532867432e-01
2.627480626106262207e-01 -1.466708630323410034e-01 -7.529859989881515503e-02
1.409868896007537842e-01 1.337979733943939209e-01 -4.204187989234924316e-01
-1.203575804829597473e-01 3.786209821701049805e-01 7.499125599861145020e-02
2.476654797792434692e-01 1.882345676422119141e-01 -8.651162683963775635e-02
2.778583206236362457e-02 4.070431292057037354e-01 1.447530835866928101e-01
-1.123223602771759033e-01 3.846293091773986816e-01 7.792795076966285706e-04
2.014936804771423340e-01 -2.781985700130462646e-01 1.370131671428680420e-01
-1.829369068145751953e-01 2.209103852510452271e-01 -3.056142628192901611e-01
2.220608890056610107e-01 1.581038385629653931e-01 -2.462437748908996582e-01
2.405258417129516602e-01 2.233207225799560547e-01 9.024640917778015137e-02
6.016819179058074951e-02 -3.945078551769256592e-01 -1.659428626298904419e-01
1.886813938617706299e-01 3.108703196048736572e-01 9.961280971765518188e-02
-2.607076801359653473e-02 4.101073145866394043e-01 -5.353183299303054810e-02
1.824405193328857422e-01 -3.174454867839813232e-01 -6.224353611469268799e-02
7.018262892961502075e-02 4.017594456672668457e-01 9.836132824420928955e-02
2.616516649723052979e-01 -1.657809317111968994e-01 1.506750937551259995e-02
-6.020988523960113525e-02 3.297375738620758057e-01 -2.923983633518218994e-01
1.560029536485671997e-01 7.868149131536483765e-02 -4.271850883960723877e-01
1.395176649093627930e-01 -3.329726755619049072e-01 -2.002439796924591064e-01
-7.867898792028427124e-02 1.059843413531780243e-02 5.468231439590454102e-01
3.019715659320354462e-02 -3.910566270351409912e-01 -2.134411931037902832e-01
-1.631227433681488037e-01 1.173863410949707031e-01 -4.275127649307250977e-01
2.132883854210376740e-02 -1.881237477064132690e-01 4.991616010665893555e-01
-8.757356554269790649e-02 3.676530718803405762e-01 2.326629608869552612e-01
2.053392976522445679e-01 -1.929632723331451416e-01 -2.754570841789245605e-01
-1.931089460849761963e-01 -2.702006101608276367e-01 -2.591647207736968994e-01
-1.014120727777481079e-01 -3.856806159019470215e-01 1.353154182434082031e-01
-3.184107132256031036e-03 -1.512428075075149536e-01 5.240257382392883301e-01
-2.289226800203323364e-01 2.411626428365707397e-01 -1.189034208655357361e-01
1.059842407703399658e-01 -5.040941387414932251e-02 5.247684717178344727e-01
-7.958087325096130371e-02 7.912767678499221802e-02 -5.143256783485412598e-01
-1.231859028339385986e-01 -3.616255223751068115e-01 -2.100559324026107788e-01
2.195250540971755981e-01 1.557229906320571899e-01 -2.561537325382232666e-01
3.801008686423301697e-03 -1.026768907904624939e-01 5.467523336410522461e-01
-2.661266326904296875e-01 -8.248127251863479614e-02 2.198694795370101929e-01
1.760417670011520386e-01 -3.050361275672912598e-01 -1.601530164480209351e-01
2.785400748252868652e-01 -7.433003187179565430e-02 -4.889795184135437012e-02
1.305764466524124146e-01 -3.230739831924438477e-01 -2.467423677444458008e-01
5.312006920576095581e-02 -1.483568996191024780e-01 5.158904790878295898e-01
-2.755035758018493652e-01 1.449420303106307983e-01 3.636239096522331238e-02
5.658350884914398193e-02 3.873060047626495361e-01 2.110938727855682373e-01
-2.501410841941833496e-01 1.711941063404083252e-01 1.926445662975311279e-01
2.257831990718841553e-01 -3.152000159025192261e-02 3.575074374675750732e-01
-1.862302273511886597e-01 2.457372546195983887e-01 2.957656979560852051e-01
6.562502123415470123e-03 7.944200932979583740e-02 5.624120831489562988e-01
-8.415535092353820801e-02 5.720100551843643188e-02 -5.187594294548034668e-01
-1.509290784597396851e-01 -3.704959452152252197e-01 -3.667593002319335938e-02
-2.199564725160598755e-01 -1.961006224155426025e-01 2.703739106655120850e-01
-9.209111332893371582e-02 6.371276080608367920e-02 5.344038009643554688e-01
-2.742475867271423340e-01 1.342600677162408829e-02 2.086497843265533447e-01
-8.404346555471420288e-02 5.271746218204498291e-02 5.411559939384460449e-01
-2.240412086248397827e-01 2.254016846418380737e-01 -1.840797066688537598e-01
2.484476715326309204e-01 -1.973349601030349731e-01 -5.828163027763366699e-02
-1.458399891853332520e-01 -3.443940281867980957e-01 -2.103821784257888794e-01
1.921276301145553589e-01 -1.018874347209930420e-01 4.018086791038513184e-01
1.248589009046554565e-01 -2.678794562816619873e-01 3.532377481460571289e-01
-2.760855555534362793e-01 8.378116786479949951e-02 1.646145582199096680e-01
-1.633042544126510620e-01 -3.580120205879211426e-01 3.243093192577362061e-02
-2.934382855892181396e-01 -6.646348536014556885e-02 -2.422043122351169586e-02
-8.422382920980453491e-02 -4.073649942874908447e-01 -7.893842458724975586e-02
6.745733320713043213e-02 3.333768844604492188e-01 3.409749865531921387e-01
-8.232878893613815308e-02 1.214369852095842361e-02 -5.282591581344604492e-01
2.055677771568298340e-02 2.617662549018859863e-01 -4.013378620147705078e-01
-1.573133841156959534e-02 -5.144160240888595581e-03 -5.458865761756896973e-01
1.497260332107543945e-01 1.940588802099227905e-01 -3.638198971748352051e-01
5.789908766746520996e-02 1.552587449550628662e-01 -4.779945015907287598e-01
1.186456903815269470e-01 2.937844209372997284e-02 5.220083594322204590e-01
-9.963940829038619995e-02 -3.617056906223297119e-01 2.199259251356124878e-01
1.865036934614181519e-01 -2.262860983610153198e-01 -2.844263315200805664e-01
-4.476806148886680603e-03 2.495421469211578369e-01 -4.182868897914886475e-01
-1.686393022537231445e-01 2.202111333608627319e-01 -3.327631354331970215e-01
-7.744811475276947021e-02 -3.617706000804901123e-01 -2.747201323509216309e-01
-1.040659546852111816e-01 2.169504463672637939e-01 4.523348808288574219e-01
4.432930052280426025e-02 -3.856280446052551270e-01 2.005934864282608032e-01
-2.608048915863037109e-02 -4.229484498500823975e-01 1.554610114544630051e-02
1.011381968855857849e-01 3.660154640674591064e-01 2.179817855358123779e-01
2.380945980548858643e-01 1.790321618318557739e-01 2.299684137105941772e-01
-1.334599852561950684e-01 1.866935640573501587e-01 -4.136222898960113525e-01
-2.452935129404067993e-01 1.084193587303161621e-01 -2.683556973934173584e-01
2.073914706707000732e-01 -1.900875568389892578e-01 2.952162027359008789e-01
-1.964967995882034302e-01 -2.309472262859344482e-01 2.857218980789184570e-01
1.543021947145462036e-01 -3.062347173690795898e-01 -2.284150868654251099e-01
1.637966930866241455e-02 3.895098567008972168e-01 -1.593192964792251587e-01
2.846010327339172363e-01 -1.988354325294494629e-02 6.637340039014816284e-02
2.487891465425491333e-01 -1.992491483688354492e-01 -4.271242767572402954e-02
-2.067591845989227295e-01 -1.798676699399948120e-01 -3.405941426753997803e-01
2.388343587517738342e-02 -4.206414520740509033e-01 -4.761300235986709595e-02
-5.179829895496368408e-04 -3.155172467231750488e-01 3.662763833999633789e-01
-1.299651265144348145e-01 -3.852706849575042725e-01 -5.388051271438598633e-02
-1.268088370561599731e-01 1.854046881198883057e-01 -4.214813709259033203e-01
-1.856098324060440063e-01 3.196700513362884521e-01 7.977060973644256592e-02
-1.820373237133026123e-01 -2.908358871936798096e-01 2.189796864986419678e-01
-4.224503040313720703e-02 9.291162341833114624e-02 5.522998571395874023e-01
-1.979306489229202271e-01 3.742654249072074890e-02 4.168102145195007324e-01
1.074645444750785828e-01 3.299070596694946289e-01 3.042331635951995850e-01
1.821492463350296021e-01 -2.864413559436798096e-01 -1.893829852342605591e-01
1.532432734966278076e-01 2.323526330292224884e-02 4.871630072593688965e-01
-2.681038677692413330e-01 -1.860072463750839233e-01 -6.037715822458267212e-02
9.402018785476684570e-02 3.376868963241577148e-01 -2.321619242429733276e-01
-2.647374868392944336e-01 -1.896651536226272583e-01 -9.279264509677886963e-02
-2.610921859741210938e-01 -2.080502808094024658e-01 1.624771580100059509e-02
1.661882549524307251e-01 -2.464727759361267090e-01 -3.043209016323089600e-01
-8.146644383668899536e-02 3.911577761173248291e-01 1.467110961675643921e-01
-2.421560436487197876e-01 -2.547516115009784698e-02 -3.248360753059387207e-01
1.082854717969894409e-02 -3.658085763454437256e-01 2.711806595325469971e-01
-1.718450039625167847e-01 -3.183955550193786621e-01 -2.125991284847259521e-01
3.275018185377120972e-02 2.505955994129180908e-01 -4.100552499294281006e-01
6.977117806673049927e-02 1.454533189535140991e-01 5.254921913146972656e-01
1.276787817478179932e-01 -4.272656142711639404e-02 5.081609487533569336e-01
-5.102710425853729248e-02 4.104979038238525391e-01 1.357719115912914276e-02
1.465427875518798828e-01 -5.002419650554656982e-02 4.869974255561828613e-01
1.442598104476928711e-01 1.977828443050384521e-01 4.303213059902191162e-01
1.608693003654479980e-01 -1.417135596275329590e-01 4.287428855895996094e-01
2.718383371829986572e-01 -3.128824755549430847e-03 -1.446875482797622681e-01
-2.671308219432830811e-01 1.304324269294738770e-01 1.632319986820220947e-01
-2.062935829162597656e-01 -1.879276037216186523e-01 -3.344981074333190918e-01
-7.989762723445892334e-02 -8.639720827341079712e-02 -5.249229073524475098e-01
-2.247063219547271729e-01 2.022496163845062256e-01 2.490232437849044800e-01
-2.571694552898406982e-01 1.198931261897087097e-01 -2.147776633501052856e-01
2.013922631740570068e-01 -2.685985863208770752e-01 1.694167107343673706e-01
2.479629665613174438e-01 -1.217988058924674988e-01 -2.033202052116394043e-01
2.689826786518096924e-01 4.562272131443023682e-02 -1.491111814975738525e-01
2.240832149982452393e-02 1.105615943670272827e-01 -5.140598416328430176e-01
1.879617944359779358e-02 3.523535132408142090e-01 3.279315531253814697e-01
2.596241235733032227e-01 -1.625885516405105591e-01 9.184425324201583862e-02
-6.600269675254821777e-02 -1.529681533575057983e-01 -5.088848471641540527e-01
2.603735029697418213e-01 -1.635341346263885498e-01 -4.635888338088989258e-02
1.198169738054275513e-01 2.099938839673995972e-01 4.486787319183349609e-01
-1.143188476562500000e-01 -1.659430414438247681e-01 4.667702019214630127e-01
-2.059482485055923462e-01 -3.566431999206542969e-02 -4.025313258171081543e-01
-1.730857491493225098e-01 2.431079745292663574e-01 3.290638625621795654e-01
-2.953992038965225220e-02 -6.265777349472045898e-02 5.560374259948730469e-01
4.002562724053859711e-03 -3.579810261726379395e-01 2.896697819232940674e-01
-5.587425082921981812e-02 -3.969493806362152100e-01 1.611984521150588989e-01
-2.853284478187561035e-01 3.293070569634437561e-02 1.392236799001693726e-01
1.864465326070785522e-01 2.256602793931961060e-01 3.293012380599975586e-01
2.606303691864013672e-01 8.489824831485748291e-02 -1.678899079561233521e-01
1.392313987016677856e-01 2.283896952867507935e-01 -3.439813554286956787e-01
1.080432757735252380e-01 -3.702485859394073486e-01 1.515830904245376587e-01
1.467437446117401123e-01 -4.215260036289691925e-03 -4.558302462100982666e-01
1.620413362979888916e-01 1.257279068231582642e-01 -3.965420126914978027e-01
5.392328649759292603e-02 -1.990104019641876221e-01 -4.764476716518402100e-01
2.305300682783126831e-01 2.478127181529998779e-01 2.739170193672180176e-02
-8.537844568490982056e-02 8.039560168981552124e-02 5.353797078132629395e-01
1.713219434022903442e-01 -1.190114617347717285e-01 -4.001899361610412598e-01
1.419724375009536743e-01 3.623161911964416504e-01 4.171716421842575073e-02
2.068903744220733643e-01 -2.025924026966094971e-01 2.802560925483703613e-01
-2.787743508815765381e-01 1.293965578079223633e-01 5.354528874158859253e-02
6.481484323740005493e-02 3.619372844696044922e-01 2.812795341014862061e-01
-3.331545740365982056e-03 -1.104390546679496765e-01 -5.336187481880187988e-01
-2.269547432661056519e-01 -1.191392615437507629e-01 3.224093914031982422e-01
-5.402998626232147217e-02 -3.559740781784057617e-01 2.793075442314147949e-01
-2.716048359870910645e-01 -5.759913846850395203e-02 2.092036157846450806e-01
1.287173777818679810e-01 2.147721350193023682e-01 -3.724545538425445557e-01
7.935508340597152710e-02 -3.541631102561950684e-01 2.522673606872558594e-01
-2.801973223686218262e-01 -7.692781835794448853e-02 -1.661976575851440430e-01
1.607824563980102539e-01 1.299220044165849686e-02 -4.362420439720153809e-01
3.223543614149093628e-02 1.886641681194305420e-01 5.153552889823913574e-01
2.153475582599639893e-01 -5.043973401188850403e-02 -3.369867205619812012e-01
5.385027080774307251e-02 1.318113803863525391e-01 -4.931274950504302979e-01
-1.045037284493446350e-01 2.704344391822814941e-01 3.971928358078002930e-01
-1.283026486635208130e-01 -3.313619196414947510e-01 2.486238032579421997e-01
-1.857194863259792328e-02 -1.376305073499679565e-01 5.299910306930541992e-01
-5.839231610298156738e-02 6.881020218133926392e-02 5.516836643218994141e-01
-1.102904304862022400e-01 3.721598684787750244e-01 -1.103534996509552002e-01
2.679827213287353516e-01 9.716755896806716919e-02 1.763069629669189453e-01
1.275026649236679077e-01 -3.738991618156433105e-01 -4.440443217754364014e-02
-2.122570723295211792e-01 1.249762848019599915e-01 -3.412649333477020264e-01
7.203013449907302856e-02 -3.811853826045989990e-01 -1.975815147161483765e-01
1.153339520096778870e-01 3.806942701339721680e-01 3.124754875898361206e-03
-1.658244132995605469e-01 -4.528783261775970459e-02 -4.611373245716094971e-01
-5.705923773348331451e-03 -2.533134818077087402e-01 -4.518172144889831543e-01
4.540916532278060913e-02 -2.391469180583953857e-01 4.499786496162414551e-01
6.989137828350067139e-02 3.757329285144805908e-01 2.360581606626510620e-01
-2.177280038595199585e-01 -1.012812927365303040e-01 3.544032275676727295e-01
1.977217793464660645e-01 -2.919808328151702881e-01 -9.140836447477340698e-02
-1.987538784742355347e-01 2.191724926233291626e-01 3.022803962230682373e-01
6.414121016860008240e-03 -2.956914007663726807e-01 -4.053662419319152832e-01
-1.685417741537094116e-01 -2.721519172191619873e-01 2.855684161186218262e-01
2.834671735763549805e-01 -3.780395537614822388e-02 7.026204466819763184e-02
5.866070091724395752e-02 2.738455533981323242e-01 4.330937862396240234e-01
5.084387212991714478e-02 -3.548944294452667236e-01 2.775461375713348389e-01
-1.274313777685165405e-01 2.942990064620971680e-01 -2.889063060283660889e-01
-2.829056680202484131e-01 1.105618923902511597e-01 5.389215052127838135e-02
-2.048635780811309814e-01 -2.688853442668914795e-01 1.965385973453521729e-01
-2.578050196170806885e-01 2.588166296482086182e-02 2.727476656436920166e-01
2.517546527087688446e-02 1.329538822174072266e-01 -5.027825832366943359e-01
-2.214990407228469849e-01 2.381101846694946289e-01 1.948792934417724609e-01
-2.906963229179382324e-01 7.202024757862091064e-02 4.686007276177406311e-03
-1.011405140161514282e-01 3.149878680706024170e-01 3.355830013751983643e-01
-2.867526113986968994e-01 -8.607125841081142426e-03 1.374749839305877686e-01
-1.033706888556480408e-01 -9.409648180007934570e-02 -5.102248787879943848e-01
2.204831242561340332e-01 1.746258437633514404e-01 -2.325439304113388062e-01
1.592295765876770020e-01 3.327738642692565918e-01 1.694501489400863647e-01
-2.443596571683883667e-01 1.507804393768310547e-01 2.451496720314025879e-01
-1.637955456972122192e-01 3.410938680171966553e-01 -5.168134719133377075e-02
1.775132566690444946e-01 -2.164881229400634766e-01 -3.168590962886810303e-01
1.412277221679687500e-01 3.598054647445678711e-01 1.035436019301414490e-01
4.736557602882385254e-02 2.909415066242218018e-01 4.176791906356811523e-01
1.726159080862998962e-02 2.902622222900390625e-01 -3.666839003562927246e-01
2.476876527070999146e-01 1.965230852365493774e-01 -6.054653972387313843e-02
-1.680992394685745239e-01 -3.459117710590362549e-01 9.045795351266860962e-02
-2.931276559829711914e-01 -3.232115134596824646e-02 -8.074811100959777832e-02
-2.506744265556335449e-01 1.471730768680572510e-01 -2.088750153779983521e-01
-2.459894418716430664e-01 2.227790057659149170e-01 -5.030310153961181641e-02
1.257037520408630371e-01 -1.539481282234191895e-01 4.632758498191833496e-01
-2.199097126722335815e-01 -3.103656694293022156e-02 3.733165860176086426e-01
2.393104583024978638e-01 1.062463819980621338e-01 -2.377670407295227051e-01
-2.531945109367370605e-01 9.294348955154418945e-02 2.627152502536773682e-01
2.244956493377685547e-01 -2.558670043945312500e-01 -2.430525235831737518e-02
2.691195905208587646e-01 1.397213041782379150e-01 -2.938711084425449371e-03
-2.549415230751037598e-01 4.947127029299736023e-02 -2.737639844417572021e-01
-2.954920530319213867e-01 1.582546904683113098e-02 -2.358003146946430206e-02
-2.029458731412887573e-01 -2.605062723159790039e-01 -2.487762570381164551e-01
-2.183547765016555786e-01 -2.380574643611907959e-01 2.122906148433685303e-01
2.534064650535583496e-01 1.548037379980087280e-01 -1.213904991745948792e-01
-1.721229255199432373e-01 3.004563152790069580e-01 -1.847444176673889160e-01
-9.756928682327270508e-02 -2.497076243162155151e-01 4.094478785991668701e-01
-3.487543389201164246e-02 -4.226394295692443848e-01 -1.068836823105812073e-02
2.831400632858276367e-01 -4.853232577443122864e-02 5.669510364532470703e-02
4.781372100114822388e-02 4.108499586582183838e-01 2.153134718537330627e-02
-2.861324846744537354e-01 9.618018567562103271e-02 4.243933409452438354e-02
2.400462478399276733e-01 -2.243486195802688599e-01 3.106334060430526733e-02
-2.410875111818313599e-01 -2.331332117319107056e-01 -1.487908661365509033e-01
-1.760537624359130859e-01 -2.441637516021728516e-01 3.118821978569030762e-01
1.573156118392944336e-01 -1.950700134038925171e-01 3.914432823657989502e-01
2.453650385141372681e-01 -1.973559409379959106e-01 -9.115945547819137573e-02
-1.717980355024337769e-01 3.082787394523620605e-01 -1.634070724248886108e-01
-2.124581933021545410e-01 2.327087074518203735e-01 2.412251532077789307e-01
-1.532186418771743774e-01 -5.413076840341091156e-03 -4.759689569473266602e-01
1.456442624330520630e-01 8.412867039442062378e-02 4.872196316719055176e-01
1.466817036271095276e-02 1.338487118482589722e-01 -5.046069025993347168e-01
-2.304159402847290039e-01 2.331046760082244873e-01 1.628578901290893555e-01
-7.928919792175292969e-02 -2.730202972888946533e-01 3.966894745826721191e-01
1.939341723918914795e-01 -2.993481457233428955e-01 8.883705735206604004e-02
-3.788372874259948730e-02 3.135163486003875732e-01 -3.308179378509521484e-01
2.322343587875366211e-01 -7.829384505748748779e-02 -2.851261496543884277e-01
-1.137592568993568420e-01 3.757901489734649658e-01 -7.927435636520385742e-02
-9.839069098234176636e-02 -1.390520781278610229e-01 -4.987277090549468994e-01
-6.716214865446090698e-02 -2.195174396038055420e-01 4.592651128768920898e-01
1.045024544000625610e-01 -3.906148076057434082e-01 1.276552863419055939e-02
1.043887063860893250e-01 -2.415986061096191406e-01 -4.033890068531036377e-01
2.188711315393447876e-01 1.464294046163558960e-01 -2.668824493885040283e-01
2.212027609348297119e-01 -1.611558198928833008e-01 2.896836400032043457e-01
-2.941295206546783447e-01 -3.041899390518665314e-02 5.579745024442672729e-02
9.870225191116333008e-02 -3.059076070785522461e-01 -3.301525712013244629e-01
-1.798416525125503540e-01 -8.269265294075012207e-02 4.317321777343750000e-01
2.852597236633300781e-01 5.363919772207736969e-03 -7.079841569066047668e-03
-1.398390680551528931e-01 -3.618749082088470459e-01 1.322833299636840820e-01
9.616144746541976929e-02 -3.871943056583404541e-01 -1.145212128758430481e-01
2.466705590486526489e-01 5.840967223048210144e-02 -2.406274080276489258e-01
-2.072138488292694092e-01 2.714662551879882812e-01 -1.374002695083618164e-01
-1.920832544565200806e-01 -6.845193356275558472e-02 -4.214821159839630127e-01
-6.777433305978775024e-02 3.346951603889465332e-01 -2.776469886302947998e-01
-2.506747841835021973e-04 -2.161018699407577515e-01 -4.815925359725952148e-01
-1.168934162706136703e-03 -4.232427775859832764e-01 2.185191959142684937e-02
-1.918670088052749634e-01 3.033033907413482666e-01 1.347403079271316528e-01
-1.103613898158073425e-01 2.971932291984558105e-01 3.535079956054687500e-01
1.796831637620925903e-01 -3.718025982379913330e-02 4.460347592830657959e-01
-2.525032162666320801e-01 -1.181964296847581863e-02 -2.955618202686309814e-01
-1.231310069561004639e-01 -9.755879640579223633e-02 -4.949479997158050537e-01
1.913277655839920044e-01 -2.728726863861083984e-01 1.994062364101409912e-01
-1.387015581130981445e-01 3.526320457458496094e-01 1.630658805370330811e-01
1.951035559177398682e-01 -1.930698305368423462e-01 -3.018489778041839600e-01
-2.784387469291687012e-01 -6.147156655788421631e-02 1.726609766483306885e-01
-1.441492885351181030e-01 -9.886107593774795532e-02 4.722663760185241699e-01
-3.687915205955505371e-02 1.830950081348419189e-01 -4.740813076496124268e-01
1.746040880680084229e-01 -1.487177014350891113e-01 4.029089212417602539e-01
3.544891625642776489e-02 -4.335961863398551941e-02 5.598433613777160645e-01
7.245496846735477448e-03 4.132248163223266602e-01 -3.616744279861450195e-02
-2.472815066576004028e-01 1.190060600638389587e-01 -2.526746094226837158e-01
6.290634721517562866e-02 -4.094904959201812744e-01 -5.747547745704650879e-02
-8.304806053638458252e-02 -3.071220517158508301e-01 3.472024500370025635e-01
2.813521027565002441e-01 -7.479229010641574860e-03 1.220428720116615295e-01
2.790890336036682129e-01 4.280951246619224548e-02 -7.747629284858703613e-02
3.347758948802947998e-02 2.269538491964340210e-01 -4.334931969642639160e-01
-1.247850582003593445e-01 1.775479018688201904e-01 -4.297517836093902588e-01
-2.043252289295196533e-01 6.656425446271896362e-02 -3.888441622257232666e-01
1.450844109058380127e-01 -2.285059988498687744e-01 3.747389316558837891e-01
-2.278779596090316772e-01 -1.753914058208465576e-01 -2.926831543445587158e-01
8.611006662249565125e-03 3.889947533607482910e-01 2.344737499952316284e-01
2.611172795295715332e-01 -1.240168139338493347e-01 1.680522114038467407e-01
-2.457837164402008057e-01 -1.822978109121322632e-01 -2.248075902462005615e-01
-9.714993834495544434e-02 -3.546746969223022461e-01 -2.703759372234344482e-01
2.351654917001724243e-01 -2.122767567634582520e-01 1.471621096134185791e-01
1.502286642789840698e-01 2.978858351707458496e-01 -2.190352231264114380e-01
-1.795655041933059692e-01 1.884359866380691528e-01 3.766366243362426758e-01
-2.691377997398376465e-01 1.611584573984146118e-01 -5.737849324941635132e-02
1.300191730260848999e-01 -6.775891035795211792e-02 4.995363652706146240e-01
2.093649357557296753e-01 2.812110185623168945e-01 1.007957682013511658e-01
1.740659475326538086e-01 2.588432729244232178e-01 3.103151321411132812e-01
-2.429126389324665070e-02 3.815688192844390869e-01 2.527680397033691406e-01
-2.196455448865890503e-01 -1.225037351250648499e-01 3.378417789936065674e-01
1.808619946241378784e-01 2.539233565330505371e-01 3.019505739212036133e-01
1.710064262151718140e-01 2.635465264320373535e-01 -2.370229810476303101e-01
-1.467515528202056885e-01 2.119405120611190796e-01 4.080992341041564941e-01
-6.928388774394989014e-02 -3.832328319549560547e-01 -2.250814437866210938e-01
-8.709740638732910156e-02 -3.727368116378784180e-01 2.062586843967437744e-01
1.266314834356307983e-01 2.491712272167205811e-01 4.032102823257446289e-01
9.686030447483062744e-02 1.325951237231492996e-02 5.387415289878845215e-01
1.473609656095504761e-01 -6.092126294970512390e-02 4.831704497337341309e-01
1.984012275934219360e-01 1.946760416030883789e-01 -2.702023684978485107e-01
-1.574317514896392822e-01 3.307954072952270508e-01 -1.361655890941619873e-01
8.607766777276992798e-02 -1.620848923921585083e-01 -4.777459800243377686e-01
3.322023898363113403e-02 -3.838647007942199707e-01 -2.334353625774383545e-01
-1.193160340189933777e-01 1.167544871568679810e-01 -4.732551872730255127e-01
2.896658517420291901e-02 -3.288850188255310059e-01 3.394077718257904053e-01
-2.904708981513977051e-01 -7.341054826974868774e-02 6.334900110960006714e-02
-2.583492398262023926e-01 1.925847530364990234e-01 -5.561770498752593994e-02
2.660109400749206543e-01 1.123120710253715515e-01 -1.072584763169288635e-01
-2.713915109634399414e-01 -1.286305934190750122e-01 1.503817290067672729e-01
-2.597956359386444092e-01 3.977754339575767517e-02 2.627429068088531494e-01
2.780750691890716553e-01 -9.131497144699096680e-02 5.041156709194183350e-02
-2.497457116842269897e-01 2.155490368604660034e-01 -4.272218793630599976e-02
5.458737164735794067e-02 1.950442790985107422e-01 5.045157074928283691e-01
-2.453391104936599731e-01 -4.144163429737091064e-02 3.082717955112457275e-01
2.726682722568511963e-01 -1.224545538425445557e-01 7.639740593731403351e-03
6.579635292291641235e-02 -4.090864062309265137e-01 2.713361009955406189e-02
-1.713243722915649414e-01 3.296445608139038086e-01 -7.879424840211868286e-02
-1.300065517425537109e-01 -9.111744165420532227e-02 -4.907809197902679443e-01
-2.078115046024322510e-01 -6.718917191028594971e-02 3.890485167503356934e-01
-2.950800359249114990e-01 1.809338293969631195e-02 -3.564736992120742798e-02
2.475771456956863403e-01 1.455318182706832886e-01 -1.663906723260879517e-01
2.463628798723220825e-01 -1.708767116069793701e-01 -1.475053578615188599e-01
1.068746745586395264e-01 -1.511307358741760254e-01 4.823608398437500000e-01
-2.779498994350433350e-01 -1.560490876436233521e-01 -1.703881286084651947e-02
-1.246058195829391479e-01 -3.139299806207418442e-03 -5.027182102203369141e-01
-2.594574391841888428e-01 -2.129056453704833984e-01 8.511347696185112000e-03
-2.297424972057342529e-01 3.606237098574638367e-02 -3.473344147205352783e-01
-1.273622959852218628e-01 -3.526174128055572510e-01 -2.282488048076629639e-01
-2.513960599899291992e-01 6.425098329782485962e-02 2.834574878215789795e-01
-2.933738231658935547e-01 3.750203177332878113e-02 4.547093808650970459e-02
1.529223471879959106e-01 -3.087592720985412598e-01 2.287235409021377563e-01
-2.461582124233245850e-01 2.204116731882095337e-01 8.667717128992080688e-02
-1.264573819935321808e-02 2.422798275947570801e-01 -4.258438646793365479e-01
-1.714503318071365356e-01 3.249413669109344482e-01 -1.027385443449020386e-01
-9.185355901718139648e-02 -1.094094812870025635e-01 -5.130313038825988770e-01
-1.860707104206085205e-01 2.312050014734268188e-01 -2.849120795726776123e-01
3.025191836059093475e-03 -1.836510449647903442e-01 5.039232969284057617e-01
-1.061688829213380814e-02 3.643261492252349854e-01 -2.363363951444625854e-01
2.707531750202178955e-01 9.717012196779251099e-02 1.558167636394500732e-01
-6.950603425502777100e-02 -3.281419277191162109e-01 3.231140375137329102e-01
-1.560563296079635620e-01 -5.558429658412933350e-02 -4.714649617671966553e-01
-1.102235019207000732e-01 -3.523485958576202393e-01 2.284490317106246948e-01
-2.583546340465545654e-01 -1.667767614126205444e-01 1.668392568826675415e-01
1.534616574645042419e-03 2.055520713329315186e-01 5.072383880615234375e-01
1.116719096899032593e-02 -3.476006686687469482e-01 3.098750710487365723e-01
-1.416034996509552002e-01 6.193739362061023712e-03 4.965184628963470459e-01
-1.481057256460189819e-01 -1.497787088155746460e-01 4.417827129364013672e-01
-9.767023473978042603e-02 -2.081149369478225708e-01 -4.605845212936401367e-01
-2.841781266033649445e-02 -4.826612025499343872e-02 -5.446242690086364746e-01
2.429621070623397827e-01 -1.268003582954406738e-01 2.527490556240081787e-01
-1.031700745224952698e-01 -1.462885290384292603e-01 -4.925461709499359131e-01
-7.616665214300155640e-03 2.419303059577941895e-01 4.779260456562042236e-01
1.064623743295669556e-01 -2.698967456817626953e-01 -3.702906668186187744e-01
2.614731192588806152e-01 -1.283247396349906921e-02 2.465805560350418091e-01
8.274385333061218262e-02 2.187961488962173462e-01 4.724410772323608398e-01
-1.417121589183807373e-01 3.538905680179595947e-01 -9.367561340332031250e-02
-1.146493926644325256e-01 -1.839865446090698242e-01 -4.641623198986053467e-01
-2.692909240722656250e-01 1.376388221979141235e-01 -1.242473348975181580e-01
-2.691766619682312012e-01 -6.984602659940719604e-02 -2.266194671392440796e-01
2.305276095867156982e-01 1.755352020263671875e-01 2.653322815895080566e-01
2.296573854982852936e-02 -7.472746819257736206e-02 -5.376043319702148438e-01
-4.014394432306289673e-02 2.567785680294036865e-01 4.564824998378753662e-01
1.539721339941024780e-01 3.051420748233795166e-01 2.699522078037261963e-01
-9.733553230762481689e-02 -3.594283759593963623e-01 2.292608022689819336e-01
-1.794245243072509766e-01 -3.189860284328460693e-01 -1.858768463134765625e-01
-5.204276647418737411e-03 4.124103784561157227e-01 1.180475354194641113e-01
-1.941222548484802246e-01 -2.010103613138198853e-01 3.272047340869903564e-01
-5.851319432258605957e-02 3.014779090881347656e-01 3.946763277053833008e-01
-1.689824908971786499e-01 -2.224829345941543579e-01 3.511147201061248779e-01
2.407033368945121765e-02 -9.206210821866989136e-02 5.489144921302795410e-01
1.693075150251388550e-01 2.927752435207366943e-01 -1.819453835487365723e-01
2.682361900806427002e-01 -1.403895318508148193e-01 -9.389324113726615906e-03
2.546634972095489502e-01 -4.379479587078094482e-02 -2.209485471248626709e-01
-2.891178131103515625e-01 -8.811371773481369019e-02 -7.306271791458129883e-02
6.901442259550094604e-02 -1.760669201612472534e-01 4.915353059768676758e-01
-5.141717940568923950e-02 3.860509693622589111e-01 2.187258601188659668e-01
-1.835789065808057785e-03 1.417747735977172852e-01 5.427322387695312500e-01
2.518674135208129883e-01 -9.772284328937530518e-02 2.442513108253479004e-01
3.916428983211517334e-02 -3.758913576602935791e-01 -2.510401606559753418e-01
-2.605911195278167725e-01 1.927122473716735840e-01 9.232708252966403961e-03
-1.214384585618972778e-01 7.672768831253051758e-02 -4.885742366313934326e-01
1.385765522718429565e-01 3.555013835430145264e-01 1.502666771411895752e-01
-2.042441070079803467e-01 8.591999858617782593e-02 3.932642042636871338e-01
2.749236524105072021e-01 -5.490917712450027466e-02 1.531983166933059692e-01
-1.450008004903793335e-01 -2.358153611421585083e-01 3.728877007961273193e-01
-2.938748598098754883e-01 -2.255418896675109863e-02 -7.348643988370895386e-02
2.713719308376312256e-01 1.037082448601722717e-01 -7.726840674877166748e-02
-8.880974352359771729e-02 -3.623609542846679688e-01 2.327989637851715088e-01
2.118863612413406372e-01 2.810309231281280518e-01 4.312442243099212646e-02
-1.220538280904293060e-02 2.959147989749908447e-01 4.193703830242156982e-01
1.803612262010574341e-01 -2.851342260837554932e-01 2.070708870887756348e-01
1.922965794801712036e-01 -3.130421414971351624e-02 -3.869957327842712402e-01
-1.508449316024780273e-01 -3.644474446773529053e-01 -1.076900959014892578e-01
2.064979523420333862e-01 -1.047186180949211121e-01 -3.394506573677062988e-01
-1.755048334598541260e-01 -3.051319718360900879e-01 -2.353735864162445068e-01
1.116246059536933899e-01 -3.838371634483337402e-01 -6.387095898389816284e-02
-2.619807720184326172e-01 -1.223639249801635742e-01 -2.239927798509597778e-01
-7.786920666694641113e-02 3.797512650489807129e-01 2.067759037017822266e-01
6.416880339384078979e-02 4.023168385028839111e-01 1.145962476730346680e-01
-2.771717607975006104e-01 -9.616301208734512329e-02 1.532439887523651123e-01
-1.702294126152992249e-02 -1.111474707722663879e-01 5.422778129577636719e-01
3.783597052097320557e-02 -3.844100534915924072e-01 2.097073793411254883e-01
-2.293481677770614624e-01 -1.354279667139053345e-01 -3.209943473339080811e-01
1.508981883525848389e-01 -2.980098426342010498e-01 -2.542670071125030518e-01
2.319380491971969604e-01 -2.415359169244766235e-01 -1.806198991835117340e-02
2.702524662017822266e-01 -9.237343072891235352e-02 -1.086061298847198486e-01
4.879598319530487061e-02 3.472183346748352051e-01 3.267103433609008789e-01
-1.879692971706390381e-01 1.110239475965499878e-01 4.127258062362670898e-01
-5.072945356369018555e-02 -4.051311612129211426e-01 1.308060288429260254e-01
-2.564237415790557861e-01 -9.129971265792846680e-02 -2.660580575466156006e-01
-2.719769775867462158e-01 -1.013918891549110413e-01 1.778562068939208984e-01
-1.311159282922744751e-01 -1.818129122257232666e-01 -4.509142935276031494e-01
5.046963691711425781e-02 4.086925387382507324e-01 8.820517361164093018e-02
1.309738308191299438e-01 2.950919568538665771e-01 3.341356217861175537e-01
1.059821695089340210e-01 6.022652611136436462e-02 -4.873200058937072754e-01
1.392563581466674805e-01 9.868733584880828857e-03 5.028067827224731445e-01
2.053304016590118408e-01 2.759484350681304932e-01 -8.398163318634033203e-02
1.367722898721694946e-01 -2.651993334293365479e-01 3.400538563728332520e-01
-1.206850707530975342e-01 3.777489662170410156e-01 8.361245691776275635e-02
4.188629239797592163e-02 3.449239730834960938e-01 -2.658666968345642090e-01
-1.122588962316513062e-01 3.783904314041137695e-01 -6.794821470975875854e-02
-3.356833383440971375e-02 -1.770020723342895508e-01 -5.053726434707641602e-01
-1.055541113018989563e-01 -3.996698856353759766e-01 1.713492907583713531e-02
1.271452903747558594e-01 -2.375311255455017090e-01 3.885648846626281738e-01
