1.398188769817352295e-01 -1.451036185026168823e-01 -3.506582975387573242e-01
-1.322816312313079834e-01 -3.423032760620117188e-01 -2.956210672855377197e-01
1.318663209676742554e-01 3.065799772739410400e-01 3.237008750438690186e-01
-1.220688037574291229e-02 -5.154367685317993164e-01 5.784323811531066895e-01
1.362906992435455322e-01 1.003615260124206543e-01 -4.557126462459564209e-01
8.082081377506256104e-02 -2.704135179519653320e-01 -7.251983284950256348e-01
-1.106229424476623535e-01 2.686300873756408691e-02 7.062995433807373047e-01
1.464300453662872314e-01 2.422986775636672974e-01 1.131946519017219543e-01
7.555960118770599365e-02 1.084375753998756409e-02 -8.706008195877075195e-01
-1.012710034847259521e-01 -1.828425973653793335e-01 7.071541547775268555e-01
1.176829487085342407e-01 1.827560514211654663e-01 -5.908157229423522949e-01
-7.138225436210632324e-02 -3.895274698734283447e-01 -7.001579403877258301e-01
-7.615144550800323486e-02 1.148247867822647095e-01 8.505988717079162598e-01
-9.037733078002929688e-02 -5.189115405082702637e-01 -2.548459470272064209e-01
6.409625709056854248e-02 -2.354525774717330933e-01 8.374248147010803223e-01
1.565145552158355713e-01 -7.269946392625570297e-03 8.867098391056060791e-02
1.263129711151123047e-01 3.054479658603668213e-01 4.087224304676055908e-01
1.019497066736221313e-01 4.389162957668304443e-01 -3.624439835548400879e-01
8.936433494091033936e-02 2.936935424804687500e-01 -6.875470876693725586e-01
6.023049727082252502e-02 4.553121924400329590e-01 -6.121233701705932617e-01
-3.507533296942710876e-02 -4.387844502925872803e-01 -7.203689217567443848e-01
-9.019374847412109375e-02 4.044994413852691650e-01 -5.924910902976989746e-01
-1.103557199239730835e-01 -4.770331084728240967e-01 -1.862094178795814514e-02
-4.740866646170616150e-02 -3.320051357150077820e-02 9.465298056602478027e-01
1.042810529470443726e-01 4.345983564853668213e-01 3.784146308898925781e-01
-1.499053090810775757e-01 -2.180298864841461182e-01 1.553487032651901245e-01
-3.682001680135726929e-02 -5.997533202171325684e-01 -2.951485216617584229e-01
-1.170273721218109131e-01 -4.446716308593750000e-01 8.589389920234680176e-02
9.537775814533233643e-02 -1.151897609233856201e-01 7.841830253601074219e-01
-7.100018858909606934e-02 2.763861976563930511e-02 8.848982453346252441e-01
-9.201809763908386230e-02 -4.004538953304290771e-01 -5.842247605323791504e-01
-4.798854887485504150e-02 -2.907347977161407471e-01 8.306319713592529297e-01
1.052936911582946777e-01 4.883467555046081543e-01 -6.202090531587600708e-02
-1.523990035057067871e-01 -1.233180165290832520e-01 -3.432567417621612549e-01
1.499386727809906006e-01 -1.688885688781738281e-01 5.389371514320373535e-02
-1.011533290147781372e-01 3.887422084808349609e-01 -5.461206436157226562e-01
1.080077439546585083e-01 -3.336230516433715820e-01 -4.613111615180969238e-01
-7.596203684806823730e-02 -4.868139326572418213e-01 -4.955272972583770752e-01
-1.505064368247985840e-01 1.802587360143661499e-01 -2.967261672019958496e-01
-1.391575634479522705e-01 -1.201080530881881714e-01 4.478927552700042725e-01
1.463883519172668457e-01 -1.147847920656204224e-01 -2.671528458595275879e-01
1.288403198122978210e-02 6.259095668792724609e-01 2.696673870086669922e-01
-1.377996653318405151e-01 -1.280573755502700806e-01 -5.435934662818908691e-01
1.436754763126373291e-01 2.581287026405334473e-01 -1.229279637336730957e-01
-1.279291212558746338e-01 -3.876396641135215759e-02 5.830826759338378906e-01
1.122046858072280884e-01 -3.674867749214172363e-01 3.798695504665374756e-01
1.343173682689666748e-01 2.846774160861968994e-01 -2.840064465999603271e-01
8.814014494419097900e-02 3.273943904787302017e-03 -8.175870180130004883e-01
-8.931502699851989746e-02 3.798152506351470947e-01 5.744365453720092773e-01
-1.477505862712860107e-01 -2.723560631275177002e-01 -1.236246619373559952e-02
9.985828399658203125e-02 -4.086434543132781982e-01 -3.816921710968017578e-01
1.500874608755111694e-01 -8.653723448514938354e-02 2.686646878719329834e-01
-1.122123599052429199e-01 -8.787516504526138306e-03 6.977891325950622559e-01
1.041959226131439209e-01 2.342368811368942261e-01 6.829223632812500000e-01
1.246189177036285400e-01 -1.279885172843933105e-01 -5.434288382530212402e-01
1.260146647691726685e-01 -1.156461164355278015e-01 -5.378210544586181641e-01
-1.091626882553100586e-01 -4.433737099170684814e-01 2.582577466964721680e-01
-8.927799761295318604e-02 4.982907325029373169e-03 -8.791824579238891602e-01
-1.387051641941070557e-01 3.145762085914611816e-01 -2.247891873121261597e-01
1.227667331695556641e-01 9.537288546562194824e-02 6.325153112411499023e-01
1.375076770782470703e-01 5.222067236900329590e-02 5.038959383964538574e-01
-1.259520947933197021e-01 3.993912935256958008e-01 -1.728307306766510010e-01
-1.169115956872701645e-02 -5.980505347251892090e-01 3.354682028293609619e-01
-5.875750258564949036e-02 3.899388313293457031e-01 7.017409801483154297e-01
-1.446516364812850952e-01 2.548969089984893799e-01 1.788613945245742798e-01
9.904815256595611572e-02 1.847948282957077026e-01 -7.166552543640136719e-01
-1.805501803755760193e-02 6.004509329795837402e-01 3.665734231472015381e-01
-1.610198915004730225e-01 -5.958807840943336487e-02 -1.461803615093231201e-01
4.134304821491241455e-02 -3.132336437702178955e-01 -8.256461024284362793e-01
1.456298828125000000e-01 -2.163942009210586548e-01 -3.350611031055450439e-02
-1.188988536596298218e-01 -3.823878169059753418e-01 3.143827617168426514e-01
-2.171322889626026154e-02 5.675219893455505371e-01 4.668265283107757568e-01
-1.569919586181640625e-01 -1.130546554923057556e-01 -2.431658506393432617e-01
-1.241785138845443726e-01 2.235811203718185425e-01 5.119644999504089355e-01
1.032875329256057739e-01 4.642123878002166748e-01 -2.628888785839080811e-01
8.797249197959899902e-02 4.795439541339874268e-01 4.121986627578735352e-01
1.053182184696197510e-01 -5.562638863921165466e-02 -7.181825041770935059e-01
1.196870952844619751e-01 -3.598196804523468018e-01 -2.485814690589904785e-01
1.519411802291870117e-01 1.698829680681228638e-01 -5.800384283065795898e-02
-3.020249679684638977e-02 5.554792284965515137e-01 4.802924394607543945e-01
1.559474468231201172e-01 -1.261275075376033783e-02 -7.113449275493621826e-02
1.216500997543334961e-01 -3.865336477756500244e-01 -2.151557616889476776e-02
1.503119021654129028e-01 4.187249019742012024e-02 3.129178583621978760e-01
-1.019917875528335571e-01 -1.698569767177104950e-02 -8.241732716560363770e-01
1.446898132562637329e-01 -6.446885317564010620e-02 -3.389054238796234131e-01
-1.516635864973068237e-01 -9.614253789186477661e-02 2.871435880661010742e-01
1.308384239673614502e-01 2.498880177736282349e-01 -3.949609994888305664e-01
9.310653805732727051e-02 -3.619713485240936279e-01 5.657708644866943359e-01
1.117568314075469971e-01 -6.663021445274353027e-02 7.097396254539489746e-01
-1.313094329088926315e-02 2.216889560222625732e-01 9.365634322166442871e-01
-3.842359036207199097e-02 6.117835044860839844e-01 2.370402514934539795e-01
1.455097049474716187e-01 2.480284422636032104e-01 1.358606368303298950e-01
-5.140603333711624146e-02 4.006748646497726440e-02 9.377560615539550781e-01
9.524343907833099365e-02 1.146797090768814087e-01 -7.679218053817749023e-01
-1.396378576755523682e-01 3.051235675811767578e-01 1.482611000537872314e-01
9.751960635185241699e-02 -3.971589505672454834e-01 4.636726379394531250e-01
-7.956765592098236084e-02 5.597196817398071289e-01 -1.723506599664688110e-01
-1.355251818895339966e-01 -3.526999056339263916e-01 -1.588221043348312378e-01
3.219212219119071960e-02 7.889790087938308716e-02 9.775836467742919922e-01
-1.108007282018661499e-01 -4.329019486904144287e-01 -3.431096673011779785e-01
4.565287381410598755e-02 2.851175367832183838e-01 -8.599769473075866699e-01
-9.349928796291351318e-02 4.222806990146636963e-01 -5.369627475738525391e-01
-1.614087671041488647e-01 6.484594941139221191e-02 -6.280970573425292969e-02
-1.198467463254928589e-01 -2.195778489112854004e-01 5.568086504936218262e-01
-1.398694217205047607e-01 3.153701126575469971e-01 9.260883927345275879e-02
-1.394097954034805298e-01 -8.853018283843994141e-03 -5.645828247070312500e-01
-5.599487572908401489e-02 -5.940579771995544434e-01 1.555872708559036255e-01
1.069794446229934692e-01 2.121329605579376221e-01 -6.496681571006774902e-01
6.839844584465026855e-02 5.831569433212280273e-01 1.510969102382659912e-01
-1.264865249395370483e-01 2.476230859756469727e-01 -5.445530414581298828e-01
-3.215876221656799316e-02 2.526591718196868896e-01 -9.311112165451049805e-01
-2.069170027971267700e-02 -4.627962410449981689e-01 6.704777479171752930e-01
1.546061635017395020e-01 6.546507030725479126e-02 1.844413429498672485e-01
-7.054261863231658936e-02 -2.808716893196105957e-01 -8.250690102577209473e-01
-2.511531673371791840e-02 -6.056773066520690918e-01 -3.030969798564910889e-01
-6.569476425647735596e-02 -5.488774776458740234e-01 -3.641018867492675781e-01
3.542719408869743347e-02 2.965786755084991455e-01 -8.732146620750427246e-01
7.309935986995697021e-02 -4.065746665000915527e-01 -5.884762406349182129e-01
1.456180214881896973e-01 2.219175398349761963e-01 -1.702530831098556519e-01
1.122942417860031128e-01 -4.237732589244842529e-01 1.452253162860870361e-01
6.542238593101501465e-02 2.666276693344116211e-01 8.281351923942565918e-01
1.273758113384246826e-01 -3.528187051415443420e-02 6.012098193168640137e-01
9.626245498657226562e-02 4.802569150924682617e-01 3.258831202983856201e-01
-1.155406683683395386e-01 4.150630533695220947e-01 2.548179328441619873e-01
-9.302954375743865967e-02 -4.528352916240692139e-01 -4.663303494453430176e-01
9.507916867733001709e-02 5.115216374397277832e-01 1.951774954795837402e-01
-4.133737459778785706e-02 5.219097137451171875e-01 5.310459136962890625e-01
-5.988526344299316406e-02 5.508708953857421875e-01 3.672179281711578369e-01
1.486829519271850586e-01 2.126975953578948975e-01 -7.783494889736175537e-02
-1.338468343019485474e-01 -7.351064682006835938e-02 -6.066606044769287109e-01
1.961793750524520874e-02 -5.658230185508728027e-01 4.319026172161102295e-01
-1.415838599205017090e-01 3.149207234382629395e-01 -6.035159155726432800e-02
1.198265403509140015e-01 -1.255500763654708862e-01 -5.871304273605346680e-01
9.383299946784973145e-02 4.564985334873199463e-01 4.238701462745666504e-01
3.782352432608604431e-03 4.527878165245056152e-01 -7.393378615379333496e-01
-4.722237586975097656e-02 -2.416749894618988037e-01 8.695503473281860352e-01
6.930898129940032959e-02 -2.242443263530731201e-01 8.289329409599304199e-01
1.183312684297561646e-01 -3.918052613735198975e-01 1.766919344663619995e-01
1.486861705780029297e-01 2.197310477495193481e-01 -3.732408210635185242e-02
1.154233217239379883e-01 3.589420765638351440e-02 -6.594402790069580078e-01
6.867526471614837646e-02 5.854182839393615723e-01 1.209287270903587341e-01
-1.498426198959350586e-01 1.690590530633926392e-01 2.372269034385681152e-01
1.444678604602813721e-01 -1.999711543321609497e-01 -1.625544428825378418e-01
1.281183511018753052e-01 3.044570386409759521e-01 3.863582611083984375e-01
-4.563896358013153076e-02 2.707230746746063232e-01 8.573599457740783691e-01
-1.488164514303207397e-01 -8.770892024040222168e-02 -4.303770959377288818e-01
-5.700078979134559631e-02 -1.797039955854415894e-01 8.822044730186462402e-01
-1.157661676406860352e-01 1.238448694348335266e-01 6.475523114204406738e-01
6.992657482624053955e-02 1.635617613792419434e-01 -8.600346446037292480e-01
9.280410408973693848e-02 5.253753662109375000e-01 -1.149814724922180176e-01
1.197915337979793549e-02 4.316444694995880127e-02 9.972841739654541016e-01
-7.391789555549621582e-02 9.494219720363616943e-02 -9.191918373107910156e-01
-1.264635920524597168e-01 -3.115225732326507568e-01 -4.543043971061706543e-01
-1.104707270860671997e-01 -4.580559730529785156e-01 -2.419019788503646851e-01
1.745129935443401337e-02 6.364594697952270508e-01 1.915803700685501099e-01
-1.353970468044281006e-01 -3.198862671852111816e-01 -3.037427365779876709e-01
-7.583932578563690186e-02 3.361668288707733154e-01 -7.575979232788085938e-01
1.237189769744873047e-01 1.320069134235382080e-01 6.103191375732421875e-01
-5.695267021656036377e-02 2.759131416678428650e-02 9.253990054130554199e-01
-1.122888922691345215e-01 3.244373500347137451e-01 4.916260838508605957e-01
1.047078520059585571e-01 -4.453369677066802979e-01 -1.753790378570556641e-01
1.543380767107009888e-01 1.313272118568420410e-01 -1.988653279840946198e-02
-9.411381185054779053e-02 4.285693168640136719e-01 -5.192941427230834961e-01
1.174525916576385498e-01 -3.577094078063964844e-01 -2.935022711753845215e-01
-1.546858996152877808e-01 1.903978139162063599e-01 6.299710832536220551e-03
1.258995682001113892e-01 3.995950520038604736e-01 2.998268231749534607e-02
-5.908991768956184387e-02 -5.503970384597778320e-01 3.536937534809112549e-01
-1.391350477933883667e-01 -3.252362906932830811e-01 1.007091626524925232e-01
1.509200632572174072e-01 1.947357952594757080e-01 3.030264377593994141e-02
2.634048648178577423e-02 6.259696483612060547e-01 2.318618893623352051e-01
1.254015862941741943e-01 2.280679345130920410e-01 -4.831677675247192383e-01
-1.174382120370864868e-01 2.194942831993103027e-01 -6.494386792182922363e-01
-2.336432039737701416e-02 5.096334815025329590e-01 -6.331114768981933594e-01
8.845010399818420410e-02 2.993805706501007080e-01 7.103745341300964355e-01
-5.300896242260932922e-02 -3.544900938868522644e-02 9.339303970336914062e-01
1.209506243467330933e-01 1.204691603779792786e-01 -5.975185036659240723e-01
-9.059011936187744141e-02 -3.499738872051239014e-01 -6.701884269714355469e-01
-1.116740852594375610e-01 4.690895080566406250e-01 -9.799896180629730225e-02
1.346554011106491089e-01 1.774845719337463379e-01 -4.265588521957397461e-01
1.098954528570175171e-01 3.460228741168975830e-01 5.125362277030944824e-01
3.078479319810867310e-02 2.851719856262207031e-01 -8.905031085014343262e-01
-6.702747941017150879e-02 -1.927753724157810211e-02 -9.488368630409240723e-01
-1.277379393577575684e-01 -3.904162049293518066e-01 1.176545396447181702e-01
1.190114915370941162e-01 3.782730102539062500e-01 -3.078694343566894531e-01
-6.061529368162155151e-02 6.033291220664978027e-01 -7.907968759536743164e-02
1.175872683525085449e-01 -3.385107219219207764e-01 -3.422950804233551025e-01
1.236088424921035767e-01 -3.602255880832672119e-01 2.011495828628540039e-01
1.305005997419357300e-01 7.009216398000717163e-02 5.727479457855224609e-01
-1.359594911336898804e-01 3.522044122219085693e-01 -7.026454806327819824e-02
1.066787689924240112e-01 -4.442155957221984863e-01 1.666941344738006592e-01
-9.650738537311553955e-02 -4.834500551223754883e-01 -3.388148248195648193e-01
5.360243842005729675e-02 2.744081914424896240e-01 -8.472626805305480957e-01
5.332733690738677979e-02 -2.443168312311172485e-01 8.602885603904724121e-01
2.311790548264980316e-02 8.513399213552474976e-02 -9.928653836250305176e-01
-1.115997731685638428e-01 -4.084530472755432129e-01 3.359530866146087646e-01
6.335811316967010498e-02 -5.654903650283813477e-01 -1.547890007495880127e-01
9.474180638790130615e-02 5.939965695142745972e-02 -7.827549576759338379e-01
8.240991737693548203e-04 -2.553765773773193359e-01 -9.298858642578125000e-01
-1.621440649032592773e-01 2.828517183661460876e-02 -5.015441030263900757e-02
1.465766280889511108e-01 -1.038123518228530884e-01 -2.749152481555938721e-01
-1.344838589429855347e-01 -3.386692702770233154e-01 -2.609158754348754883e-01
-1.594046354293823242e-01 -1.025390066206455231e-02 -2.410633414983749390e-01
1.235201805830001831e-01 -3.733394443988800049e-01 -7.033622264862060547e-02
1.532632261514663696e-01 -1.176570057868957520e-01 4.459324106574058533e-02
1.453050971031188965e-01 2.317425608634948730e-01 2.050527930259704590e-01
-1.335038989782333374e-01 -3.142244219779968262e-01 2.704037427902221680e-01
1.096295714378356934e-01 -1.946292221546173096e-01 6.547990441322326660e-01
1.558746024966239929e-02 4.448623955249786377e-01 7.287525534629821777e-01
-1.552884001284837723e-03 -3.702057600021362305e-01 -8.270652294158935547e-01
-1.257363557815551758e-01 -4.128330647945404053e-01 -1.824333518743515015e-02
1.147689372301101685e-01 3.183559775352478027e-01 5.122965574264526367e-01
-8.087740838527679443e-02 -3.823954463005065918e-01 -6.715124249458312988e-01
-1.553611755371093750e-01 6.314161419868469238e-02 2.287185192108154297e-01
-1.029425561428070068e-01 -3.564355671405792236e-01 5.199775099754333496e-01
-1.561677753925323486e-01 -5.879628285765647888e-02 -3.121230304241180420e-01
-1.152415126562118530e-01 -1.601221039891242981e-02 6.782503128051757812e-01
-1.424134224653244019e-01 -7.384126633405685425e-02 -5.197260379791259766e-01
6.531353294849395752e-02 1.895249485969543457e-01 8.766405582427978516e-01
7.984721660614013672e-02 5.219424366950988770e-01 3.476261496543884277e-01
-6.693758070468902588e-02 5.077766776084899902e-01 -5.054690837860107422e-01
-1.547178179025650024e-01 -9.960806369781494141e-02 2.230061292648315430e-01
4.908931627869606018e-02 1.087775155901908875e-01 -9.400995969772338867e-01
-5.378900095820426941e-02 -6.955068558454513550e-02 9.272387027740478516e-01
-8.608767390251159668e-02 5.074645876884460449e-01 -3.680643737316131592e-01
-1.312131136655807495e-01 -1.757809370756149292e-01 4.929889440536499023e-01
-1.363240480422973633e-01 7.184088975191116333e-02 4.972758889198303223e-01
4.215627163648605347e-02 -1.056672036647796631e-01 9.526572227478027344e-01
1.029565650969743729e-02 -1.028528213500976562e-01 -9.973987936973571777e-01
1.374354064464569092e-01 -2.417089939117431641e-01 2.859761416912078857e-01
5.558128654956817627e-02 1.227249205112457275e-01 9.277075529098510742e-01
-1.859796978533267975e-02 5.245239734649658203e-01 -6.077026128768920898e-01
-1.888811774551868439e-02 3.204578459262847900e-01 -8.902286887168884277e-01
1.291182041168212891e-01 3.009449541568756104e-01 -3.356602787971496582e-01
1.442510485649108887e-01 -1.481355279684066772e-01 3.216360211372375488e-01
-1.427779942750930786e-01 -3.108924627304077148e-01 -9.654880315065383911e-02
1.266558170318603516e-01 8.742298930883407593e-02 6.027809381484985352e-01
-1.045656204223632812e-01 4.958160519599914551e-01 -7.658913731575012207e-02
1.353500485420227051e-01 3.324157893657684326e-01 1.460390090942382812e-01
-6.241069734096527100e-02 2.561383545398712158e-01 8.232315778732299805e-01
9.958881139755249023e-02 8.228446543216705322e-02 -7.529532909393310547e-01
1.480814069509506226e-01 -1.199619621038436890e-01 -2.228925079107284546e-01
-1.187865287065505981e-01 -3.204852938652038574e-01 4.429656267166137695e-01
-9.168094396591186523e-02 4.600590765476226807e-01 -4.637599587440490723e-01
-3.248854354023933411e-02 -2.558094859123229980e-01 -9.203622937202453613e-01
1.326696872711181641e-01 -1.384579688310623169e-01 -4.523131847381591797e-01
1.252595335245132446e-01 -1.521272957324981689e-01 -5.204784870147705078e-01
-1.220965981483459473e-01 -3.834568858146667480e-01 -3.419151008129119873e-01
1.407967507839202881e-01 2.469412982463836670e-01 2.852082550525665283e-01
6.519101560115814209e-02 4.433909654617309570e-01 -6.111794710159301758e-01
8.493278920650482178e-02 6.764864176511764526e-02 8.509247303009033203e-01
-8.962495625019073486e-02 -3.845110535621643066e-01 5.640646815299987793e-01
-6.211494654417037964e-02 -5.701823234558105469e-01 -2.946371138095855713e-01
-7.847394049167633057e-02 -5.407941341400146484e-01 -2.898695766925811768e-01
7.485340535640716553e-02 4.404586553573608398e-01 5.844596028327941895e-01
3.861998394131660461e-02 -2.143890708684921265e-01 -9.085731506347656250e-01
-1.464342474937438965e-01 -2.479047924280166626e-01 -2.609447836875915527e-01
-1.598068177700042725e-01 6.070761755108833313e-02 9.932867437601089478e-02
1.503619253635406494e-01 -9.100777655839920044e-02 2.565427422523498535e-01
1.317225545644760132e-01 3.322894275188446045e-01 2.554660141468048096e-01
-8.359725773334503174e-02 1.613265275955200195e-01 8.034839630126953125e-01
1.202538162469863892e-01 -5.940445698797702789e-04 -6.230689287185668945e-01
1.512144953012466431e-01 4.579848796129226685e-02 2.921538650989532471e-01
1.392783373594284058e-01 -2.650094926357269287e-01 -1.021168604493141174e-01
1.063929051160812378e-01 1.779109239578247070e-01 -6.755861639976501465e-01
1.410852968692779541e-01 9.905020147562026978e-02 4.450316131114959717e-01
1.015167236328125000e-01 3.871166706085205078e-02 7.792201638221740723e-01
5.395703762769699097e-02 -5.447270870208740234e-01 3.684931099414825439e-01
-1.271297782659530640e-01 -3.887990415096282959e-01 1.443135142326354980e-01
6.766210496425628662e-02 1.379874050617218018e-01 -8.777016401290893555e-01
1.554863750934600830e-01 4.014762863516807556e-02 -1.031680405139923096e-01
-1.594251245260238647e-01 1.175301074981689453e-01 -2.431589737534523010e-02
7.855562865734100342e-02 -4.039404392242431641e-01 -5.617540478706359863e-01
-1.134986579418182373e-01 2.691450715065002441e-01 5.537525415420532227e-01
1.606718078255653381e-02 -6.316508650779724121e-01 8.208709768950939178e-03
1.142101287841796875e-01 4.272766709327697754e-01 2.614113390445709229e-01
1.451575756072998047e-01 -2.082119882106781006e-01 -1.094957515597343445e-01
1.415556520223617554e-01 -1.196768730878829956e-01 3.997826576232910156e-01
-3.582303971052169800e-02 -1.110439747571945190e-01 -9.884244203567504883e-01
7.327390834689140320e-03 -3.324761390686035156e-01 -8.615558743476867676e-01
-1.046167016029357910e-01 3.410598039627075195e-01 -5.998641848564147949e-01
6.089858338236808777e-02 5.123916864395141602e-01 -4.906428754329681396e-01
-8.879138529300689697e-02 -7.894230075180530548e-04 8.191674351692199707e-01
8.488576114177703857e-02 1.644541323184967041e-01 -7.993866801261901855e-01
6.923241913318634033e-02 1.077301800251007080e-01 -8.814318776130676270e-01
-1.615080088376998901e-01 -6.642141193151473999e-02 -8.622286468744277954e-02
-1.266315281391143799e-01 3.672523498535156250e-01 -3.078317940235137939e-01
6.514917314052581787e-02 -3.472174108028411865e-01 -7.121123671531677246e-01
1.319480538368225098e-01 -1.544193029403686523e-01 4.937383532524108887e-01
-7.002219557762145996e-02 3.733680546283721924e-01 6.805934906005859375e-01
-1.426555514335632324e-01 2.795318365097045898e-01 1.559160351753234863e-01
-1.797868311405181885e-02 -4.501066207885742188e-01 -7.195122241973876953e-01
9.292216598987579346e-02 5.076896548271179199e-01 -2.300160974264144897e-01
4.687010496854782104e-02 -4.521391987800598145e-01 6.314301490783691406e-01
1.524982005357742310e-01 -1.040315106511116028e-01 -1.078530550003051758e-01
-1.878492347896099091e-02 6.414967179298400879e-01 -1.597087979316711426e-01
-1.557645052671432495e-01 3.170158341526985168e-02 -3.288107812404632568e-01
1.491967290639877319e-01 1.006663218140602112e-01 3.100591599941253662e-01
-1.113695502281188965e-01 4.581330418586730957e-01 -2.142440527677536011e-01
-8.008372783660888672e-02 -5.162652730941772461e-01 3.230380713939666748e-01
-1.027359664440155029e-01 -1.240518540143966675e-01 7.283626794815063477e-01
1.301306486129760742e-01 1.048111692070960999e-01 5.653404593467712402e-01
1.419832408428192139e-01 -2.027114927768707275e-01 2.747614383697509766e-01
9.846600890159606934e-02 2.054881155490875244e-01 7.362855672836303711e-01
-1.236238777637481689e-01 -2.900716662406921387e-01 4.416645765304565430e-01
-1.493334174156188965e-01 -2.582049369812011719e-01 -7.481767982244491577e-02
-1.172836571931838989e-01 4.029252529144287109e-01 2.681838572025299072e-01
9.697546064853668213e-02 -2.071642428636550903e-01 -6.926971077919006348e-01
-1.244443655014038086e-01 -2.752506360411643982e-02 -6.913954019546508789e-01
1.980467140674591064e-02 4.360407292842864990e-01 7.382094264030456543e-01
-1.209662258625030518e-01 4.239454567432403564e-01 8.933839946985244751e-02
-9.401051700115203857e-02 3.507350385189056396e-01 5.879074335098266602e-01
-1.121746003627777100e-01 9.847514331340789795e-03 -7.712473273277282715e-01
1.281296312808990479e-01 -3.466237783432006836e-01 -7.625322788953781128e-02
1.205832660198211670e-01 1.041610911488533020e-01 6.465708613395690918e-01
1.131283938884735107e-01 4.456072151660919189e-01 1.951311081647872925e-01
-6.046112254261970520e-02 -6.309241056442260742e-02 9.114549160003662109e-01
1.555022448301315308e-01 -5.851813033223152161e-02 -2.795951440930366516e-02
-9.208506345748901367e-02 -2.579998970031738281e-02 -8.670817017555236816e-01
-1.488768160343170166e-01 -2.323534935712814331e-01 -2.368708103895187378e-01
-1.413596868515014648e-01 1.404911875724792480e-01 -4.911546111106872559e-01
1.399608403444290161e-01 -2.289326339960098267e-01 -2.097343355417251587e-01
1.213486641645431519e-01 -3.832868635654449463e-01 1.272628456354141235e-01
-8.740848302841186523e-02 -5.413153171539306641e-01 -1.392644047737121582e-01
9.244209527969360352e-02 -3.884409368038177490e-01 5.228601098060607910e-01
1.358073651790618896e-01 3.318778052926063538e-02 5.251434445381164551e-01
5.482910200953483582e-02 -1.952784508466720581e-02 9.444770812988281250e-01
-1.212422549724578857e-01 -3.972470462322235107e-01 -3.099744617938995361e-01
3.418307006359100342e-02 4.544541239738464355e-01 -6.959101557731628418e-01
-1.438695937395095825e-01 2.794807255268096924e-01 -2.078423351049423218e-01
-1.148196756839752197e-01 4.579373002052307129e-01 -6.413162499666213989e-02
1.349437236785888672e-01 -1.385806053876876831e-01 4.726301431655883789e-01
7.743905484676361084e-02 1.918655335903167725e-01 8.365626931190490723e-01
-8.864273130893707275e-02 -4.743155241012573242e-01 -4.431903362274169922e-01
-1.023562401533126831e-01 3.621442615985870361e-01 5.133771300315856934e-01
-7.607373595237731934e-02 5.122606754302978516e-01 -4.364692568778991699e-01
4.391364753246307373e-02 -5.888609290122985840e-01 2.280610352754592896e-01
5.928833037614822388e-02 -6.711768358945846558e-02 9.272301197052001953e-01
-1.204978227615356445e-01 1.699559763073921204e-02 6.420263051986694336e-01
-1.380194276571273804e-01 -1.102085188031196594e-01 -5.514057278633117676e-01
1.049877852201461792e-01 -1.473827362060546875e-01 7.167131304740905762e-01
1.393704265356063843e-01 -1.920261532068252563e-01 3.467797935009002686e-01
9.920309484004974365e-02 -3.254388645291328430e-02 -7.583203911781311035e-01
1.473948061466217041e-01 -1.949350833892822266e-01 1.047772839665412903e-01
-2.577468007802963257e-02 6.248047947883605957e-01 2.272446900606155396e-01
6.192237511277198792e-02 4.961431026458740234e-01 -5.236362814903259277e-01
-1.284158825874328613e-01 -3.089996576309204102e-01 -4.357398450374603271e-01
1.477706432342529297e-01 -1.945430040359497070e-01 -1.625329628586769104e-02
-1.336124241352081299e-01 -3.024139255285263062e-02 5.343443751335144043e-01
-1.326376646757125854e-01 -3.692331314086914062e-01 8.017580956220626831e-02
5.283609777688980103e-02 3.752651512622833252e-01 -7.535473704338073730e-01
-1.490870863199234009e-01 1.546255946159362793e-01 -3.636982440948486328e-01
-1.320152282714843750e-01 3.073053956031799316e-01 2.979939877986907959e-01
1.023678481578826904e-01 3.499161899089813232e-01 -5.362411737442016602e-01
-1.099111163057386875e-03 -6.354173421859741211e-01 -8.853299915790557861e-02
-3.320101648569107056e-02 3.643820285797119141e-01 -8.341583609580993652e-01
-1.377426981925964355e-01 8.071947097778320312e-02 4.792933762073516846e-01
1.427461951971054077e-01 -2.470494061708450317e-01 1.303175557404756546e-02
1.209473460912704468e-01 2.773294448852539062e-01 5.113961696624755859e-01
-7.308980822563171387e-02 5.796195864677429199e-01 -9.543129801750183105e-02
-1.219354122877120972e-01 4.265582263469696045e-01 -8.259314298629760742e-02
1.044225394725799561e-01 -4.625510871410369873e-01 1.527290511876344681e-02
-1.543459296226501465e-01 1.971541941165924072e-01 -6.953421980142593384e-02
-1.609687805175781250e-01 -6.034639850258827209e-02 5.149301141500473022e-02
-9.805729985237121582e-02 3.918020427227020264e-01 4.952432513236999512e-01
1.078117489814758301e-01 3.359274864196777344e-01 -5.128078460693359375e-01
1.260478496551513672e-01 -2.040071487426757812e-01 -4.639584720134735107e-01
-2.860437706112861633e-02 -4.534252882003784180e-01 -7.055680155754089355e-01
-1.412605643272399902e-01 -1.361491084098815918e-01 4.127278923988342285e-01
8.670692145824432373e-02 1.901227682828903198e-01 -7.782121896743774414e-01
4.406042769551277161e-02 2.652700841426849365e-01 8.803928494453430176e-01
1.532374620437622070e-01 4.003463312983512878e-02 2.416669279336929321e-01
1.073970049619674683e-01 3.121560066938400269e-02 -7.136219143867492676e-01
-1.000620126724243164e-01 -3.994611501693725586e-01 4.663839042186737061e-01
6.923922896385192871e-02 5.012983679771423340e-01 -4.713020622730255127e-01
-3.980758041143417358e-02 5.790143013000488281e-01 -4.156717658042907715e-01
-1.457083821296691895e-01 2.223801761865615845e-01 -3.219887614250183105e-01
9.089334309101104736e-02 3.551383018493652344e-01 6.326928734779357910e-01
-1.547300368547439575e-01 -1.010528877377510071e-01 -3.151543438434600830e-01
1.213779747486114502e-01 -3.220244050025939941e-01 -3.280401229858398438e-01
1.025946587324142456e-01 2.573064565658569336e-01 6.730187535285949707e-01
1.033464372158050537e-01 4.291657730937004089e-02 -7.373855113983154297e-01
1.423056125640869141e-01 2.845180928707122803e-01 -4.696178436279296875e-02
4.238018020987510681e-02 -2.498856037855148315e-01 -8.764927983283996582e-01
-1.067207902669906616e-01 -3.026320338249206543e-01 -6.371036171913146973e-01
6.033944711089134216e-02 4.833937585353851318e-01 5.674498081207275391e-01
1.197855621576309204e-01 -2.516224086284637451e-01 -4.718990623950958252e-01
-1.078056693077087402e-01 4.564586877822875977e-01 -2.936189174652099609e-01
-1.442146599292755127e-01 -3.826726600527763367e-02 4.197090268135070801e-01
1.098175048828125000e-01 -2.270145565271377563e-01 -5.885365605354309082e-01
9.882280230522155762e-02 -3.683287203311920166e-01 5.120692849159240723e-01
9.196108579635620117e-02 2.921543717384338379e-01 6.998684406280517578e-01
-1.452740132808685303e-01 -1.508746892213821411e-01 3.468711972236633301e-01
1.355193704366683960e-01 2.410154640674591064e-01 -3.419371843338012695e-01
6.554439663887023926e-02 2.052414268255233765e-01 8.677445650100708008e-01
-6.692080199718475342e-02 -4.679438769817352295e-01 5.339672565460205078e-01
1.327113062143325806e-01 -3.209280669689178467e-01 -4.436866566538810730e-02
-4.412895999848842621e-03 -1.982436478137969971e-01 -9.666461944580078125e-01
-1.187849342823028564e-01 -4.252679347991943359e-01 -2.383672595024108887e-01
1.547769308090209961e-01 1.166805773973464966e-01 9.384937584400177002e-02
2.611748874187469482e-02 -9.190511703491210938e-02 -9.827058315277099609e-01
9.412686526775360107e-02 -1.819637715816497803e-01 -7.269070148468017578e-01
-1.259589046239852905e-01 -1.971200555562973022e-01 5.246050953865051270e-01
1.260360330343246460e-01 2.326717972755432129e-01 5.138398408889770508e-01
-3.710106387734413147e-02 -5.825145244598388672e-01 3.391610980033874512e-01
-1.107471585273742676e-01 4.730523228645324707e-01 1.482764538377523422e-02
-1.227176636457443237e-01 -3.348703682422637939e-01 3.754143416881561279e-01
-6.469684094190597534e-02 4.347982108592987061e-01 -6.650161147117614746e-01
-9.413686394691467285e-02 -5.272876024246215820e-01 2.145506814122200012e-02
-2.841834165155887604e-02 -6.306570172309875488e-01 -5.495300143957138062e-02
1.223232448101043701e-01 4.175070226192474365e-01 5.866941064596176147e-02
1.215540915727615356e-01 -3.879046738147735596e-01 3.032086044549942017e-02
1.022323668003082275e-01 -4.674000442028045654e-01 1.036006957292556763e-01
4.601512476801872253e-02 6.121570467948913574e-01 2.011184841394424438e-01
-9.806538000702857971e-03 3.802422583103179932e-01 8.097040653228759766e-01
-5.237859115004539490e-02 4.227264523506164551e-01 6.774752140045166016e-01
7.164129614830017090e-02 5.724298357963562012e-01 1.872548460960388184e-01
7.023853063583374023e-02 2.835672497749328613e-01 -7.846128344535827637e-01
-6.517138332128524780e-02 -5.687917396426200867e-02 -9.493235945701599121e-01
1.237342506647109985e-01 -3.006597161293029785e-01 -3.421953022480010986e-01
1.528311520814895630e-01 -7.277803868055343628e-02 -1.474708616733551025e-01
7.531359791755676270e-03 5.028787851333618164e-01 -6.534155607223510742e-01
8.899316191673278809e-02 4.336763024330139160e-01 5.143517255783081055e-01
-1.583512425422668457e-01 3.577769175171852112e-02 1.676093637943267822e-01
1.061890572309494019e-01 6.794880330562591553e-02 -7.170728445053100586e-01
-1.103141903877258301e-01 4.610017836093902588e-01 1.475859880447387695e-01
1.553120166063308716e-01 1.110596135258674622e-01 1.592876017093658447e-02
1.510701179504394531e-01 -2.120085433125495911e-02 -2.358626723289489746e-01
-8.187866210937500000e-02 4.892809987068176270e-01 -4.612876474857330322e-01
7.663178443908691406e-02 5.122985839843750000e-01 -3.897074759006500244e-01
-1.598494201898574829e-01 8.545196801424026489e-02 -1.575084626674652100e-01
-1.283673197031021118e-01 3.545572161674499512e-01 -3.174428343772888184e-01
-5.338785052299499512e-02 2.835855782032012939e-01 -8.740022778511047363e-01
-6.289806962013244629e-02 -5.674822926521301270e-01 2.551366984844207764e-01
2.257673628628253937e-02 -6.221848726272583008e-01 1.263969689607620239e-01
9.646803140640258789e-02 -3.395989164710044861e-02 -7.728918790817260742e-01
-1.017387956380844116e-01 2.322248071432113647e-01 6.688275933265686035e-01
-1.463239789009094238e-01 -1.041387990117073059e-01 3.669714629650115967e-01
-1.585170477628707886e-01 1.351013034582138062e-01 -7.511824369430541992e-02
-1.044076979160308838e-01 4.013624191284179688e-01 4.232952594757080078e-01
-7.847945392131805420e-02 -3.536322116851806641e-01 -7.207354903221130371e-01
-1.153348535299301147e-01 2.907685339450836182e-01 -5.887064933776855469e-01
-4.404374957084655762e-02 -3.559266626834869385e-01 7.762331962585449219e-01
6.649388372898101807e-02 4.861518144607543945e-01 5.342841148376464844e-01
1.540561020374298096e-01 -6.772266328334808350e-02 -1.047323867678642273e-01
-1.243216842412948608e-01 3.560653328895568848e-01 2.975048422813415527e-01
9.821370244026184082e-02 1.676910817623138428e-01 -7.305005788803100586e-01
-3.687372896820306778e-03 -3.639774024486541748e-01 8.159052133560180664e-01
5.003099516034126282e-02 -3.138701319694519043e-01 -8.016566038131713867e-01
1.015080511569976807e-01 6.724371016025543213e-02 -7.449702620506286621e-01
1.382850259542465210e-01 3.179101049900054932e-01 9.093987941741943359e-02
-1.238294392824172974e-01 -2.178778946399688721e-01 -6.030557155609130859e-01
2.096990589052438736e-03 6.373625993728637695e-01 2.092161327600479126e-01
-4.034302011132240295e-02 -3.679657578468322754e-01 -8.073092699050903320e-01
-7.114671170711517334e-02 -4.625253677368164062e-01 -5.759654641151428223e-01
-3.271905332803726196e-02 -5.959504246711730957e-01 2.972606718540191650e-01
1.300710737705230713e-01 8.569247275590896606e-02 5.725790262222290039e-01
-9.348081052303314209e-02 -5.300490856170654297e-01 -4.725896939635276794e-02
1.099064499139785767e-01 -1.354655474424362183e-01 -6.571206450462341309e-01
-1.430358290672302246e-01 2.885869443416595459e-01 -1.970715671777725220e-01
-1.043646633625030518e-01 5.424222350120544434e-02 7.387889027595520020e-01
-5.053092539310455322e-02 -5.576599240303039551e-01 -4.149476885795593262e-01
4.926907271146774292e-02 -3.589280322194099426e-02 -9.486891031265258789e-01
-1.554408818483352661e-01 1.207264065742492676e-01 1.719126403331756592e-01
-1.322734206914901733e-01 -3.668262660503387451e-01 -1.914788186550140381e-01
-8.898565173149108887e-02 4.801409542560577393e-01 3.669541478157043457e-01
1.307448446750640869e-01 -2.962906956672668457e-01 2.790342271327972412e-01
-1.032636016607284546e-01 4.840521812438964844e-01 -2.371323406696319580e-01
8.260022103786468506e-02 -2.012225538492202759e-01 7.952259182929992676e-01
1.399947702884674072e-01 3.067145645618438721e-01 6.177014857530593872e-02
2.540052682161331177e-02 3.550693094730377197e-01 -8.376463651657104492e-01
4.854286089539527893e-02 5.322681665420532227e-01 -4.984237551689147949e-01
1.285852491855621338e-01 -4.317121580243110657e-02 -5.440704822540283203e-01
-1.213987767696380615e-01 -3.874536752700805664e-01 2.638888657093048096e-01
1.339010447263717651e-01 9.990578517317771912e-03 5.455980300903320312e-01
-3.531045839190483093e-02 2.368692457675933838e-01 9.008171558380126953e-01
-9.278416633605957031e-02 4.910284280776977539e-01 -3.582059741020202637e-01
-1.450643241405487061e-01 -1.826889514923095703e-01 3.163003027439117432e-01
1.105413287878036499e-01 -2.957787513732910156e-01 5.358853340148925781e-01
1.593082211911678314e-02 -4.856311380863189697e-01 -6.417118310928344727e-01
-1.085899323225021362e-01 7.444556802511215210e-02 -7.822256684303283691e-01
-8.046694099903106689e-02 5.648992657661437988e-01 -4.865743964910507202e-02
-1.239263713359832764e-01 2.708358466625213623e-01 -5.396435856819152832e-01
1.118877977132797241e-01 -3.511126339435577393e-01 4.229760766029357910e-01
-1.294549852609634399e-01 3.893482685089111328e-01 -4.441985860466957092e-03
1.353884190320968628e-01 1.078222133219242096e-02 -4.825154542922973633e-01
-1.266768127679824829e-01 4.010151028633117676e-01 4.238871112465858459e-02
-1.661070808768272400e-02 -5.285835266113281250e-01 -5.693643689155578613e-01
1.205899864435195923e-01 -1.128688380122184753e-01 -5.877206325531005859e-01
7.334934175014495850e-02 -4.699974954128265381e-01 4.740180075168609619e-01
3.664316982030868530e-02 -5.379577875137329102e-01 -4.687729775905609131e-01
3.225167468190193176e-02 -4.958054721355438232e-01 5.854786634445190430e-01
1.153608858585357666e-01 4.293402731418609619e-01 -1.930485069751739502e-01
1.468155533075332642e-01 -1.438097506761550903e-01 -2.183993458747863770e-01
-1.259310692548751831e-01 -1.651992499828338623e-01 5.490794777870178223e-01
7.901552319526672363e-02 5.325078964233398438e-01 -2.964555025100708008e-01
1.197709143161773682e-01 1.495386362075805664e-01 6.330027580261230469e-01
1.305615901947021484e-01 -3.216421902179718018e-01 -1.405116170644760132e-01
3.946906328201293945e-02 -3.144025430083274841e-02 -9.708716273307800293e-01
-1.044980734586715698e-01 4.785106182098388672e-01 1.728835850954055786e-01
-8.228492736816406250e-02 -5.518004298210144043e-01 1.002944782376289368e-01
1.332144737243652344e-01 -2.395125925540924072e-01 -3.197316825389862061e-01
2.500250935554504395e-02 3.924013972282409668e-01 -7.974417209625244141e-01
1.529084295034408569e-01 -1.151818782091140747e-01 -5.134077742695808411e-02
7.968522608280181885e-02 -5.327250361442565918e-01 -1.157739013433456421e-01
6.728668510913848877e-02 5.022656917572021484e-01 4.928236603736877441e-01
-3.320138901472091675e-02 5.112100839614868164e-01 5.773817300796508789e-01
1.107243299484252930e-01 3.697900176048278809e-01 4.625997841358184814e-01
6.393000483512878418e-02 -3.899894654750823975e-01 6.738734245300292969e-01
3.191056102514266968e-02 2.360816448926925659e-01 -9.217887520790100098e-01
1.329900920391082764e-01 -2.279222458600997925e-01 -3.433692753314971924e-01
9.500586986541748047e-02 -1.239694654941558838e-01 -7.538483142852783203e-01
-7.852566242218017578e-02 5.684032440185546875e-01 -8.421465754508972168e-02
1.358875930309295654e-01 -6.082112714648246765e-02 -4.614090919494628906e-01
1.009386479854583740e-01 -2.469335645437240601e-01 -6.328276991844177246e-01
1.546160578727722168e-01 2.370209805667400360e-02 -1.428175121545791626e-01
-8.450746536254882812e-02 5.215355157852172852e-01 -3.289141356945037842e-01
-8.775314688682556152e-02 -1.414564438164234161e-02 -8.846119046211242676e-01
-1.020323932170867920e-01 -1.731738150119781494e-01 -7.762541770935058594e-01
-1.404071748256683350e-01 3.227095603942871094e-01 -1.058613322675228119e-02
-1.110078394412994385e-01 2.440254017710685730e-02 -7.770163416862487793e-01
8.318811655044555664e-02 -2.053019106388092041e-01 -7.670328617095947266e-01
-1.133100986480712891e-01 3.280305266380310059e-01 -5.523123145103454590e-01
-1.226818710565567017e-01 7.349105924367904663e-02 6.161181330680847168e-01
-4.635112732648849487e-02 3.233087360858917236e-01 -8.539971113204956055e-01
5.409873649477958679e-02 -9.862191230058670044e-02 -9.232174158096313477e-01
1.411990970373153687e-01 1.396650075912475586e-01 4.187497496604919434e-01
8.553513884544372559e-02 4.262774884700775146e-01 -5.297308564186096191e-01
-4.123976081609725952e-02 6.173769235610961914e-01 -2.213250100612640381e-01
-8.826279640197753906e-02 3.921613693237304688e-01 -6.246413588523864746e-01
1.245449483394622803e-01 -1.288011297583580017e-02 -5.864984393119812012e-01
9.443807601928710938e-02 -4.965227544307708740e-01 -1.815111935138702393e-02
1.332442909479141235e-01 3.209620416164398193e-01 -2.123883068561553955e-01
-8.011494576930999756e-02 9.063810110092163086e-02 8.427696228027343750e-01
7.494205236434936523e-02 -4.528944790363311768e-01 -4.853777587413787842e-01
-4.275048896670341492e-02 1.751288771629333496e-01 9.199218153953552246e-01
6.298387050628662109e-02 5.399662256240844727e-01 -4.018047749996185303e-01
8.109526336193084717e-02 4.477451741695404053e-01 -5.171679258346557617e-01
-4.552990943193435669e-02 -6.102498769760131836e-01 1.265487819910049438e-01
1.165661811828613281e-01 3.369397819042205811e-01 -4.276660978794097900e-01
1.272316724061965942e-01 -9.532491862773895264e-02 -5.371993780136108398e-01
-1.447774916887283325e-01 2.809477746486663818e-01 -1.639960855245590210e-01
1.065552085638046265e-01 4.692637622356414795e-01 -1.804420053958892822e-01
1.532163470983505249e-01 1.485526561737060547e-01 -5.050349235534667969e-02
-1.203324198722839355e-01 4.325422048568725586e-01 -1.075745001435279846e-01
1.297402530908584595e-01 -1.508349478244781494e-01 5.207707881927490234e-01
5.803812295198440552e-02 -4.918436706066131592e-01 -4.935348033905029297e-01
-1.451580971479415894e-01 2.877087295055389404e-01 -6.016685441136360168e-02
1.095981895923614502e-01 -1.122462972998619080e-01 7.064458131790161133e-01
1.516345143318176270e-01 -3.508086130023002625e-02 2.713032066822052002e-01
9.931975603103637695e-02 -3.075517714023590088e-01 6.050954461097717285e-01
-1.187647283077239990e-01 1.110149174928665161e-01 -7.089645266532897949e-01
1.156068593263626099e-01 4.422471821308135986e-01 1.437401473522186279e-01
-4.027881100773811340e-02 1.628634519875049591e-02 9.617874622344970703e-01
5.636296421289443970e-02 -5.829535126686096191e-01 1.183063611388206482e-01
1.125978678464889526e-01 -2.940738499164581299e-01 5.202549099922180176e-01
7.984946668148040771e-02 4.597255885601043701e-01 -5.004027485847473145e-01
-6.778360903263092041e-02 -5.805504918098449707e-01 1.069339439272880554e-01
1.277375370264053345e-01 -9.038276225328445435e-02 5.789992809295654297e-01
1.031410396099090576e-01 4.905296266078948975e-01 -1.227681040763854980e-01
1.089922040700912476e-01 4.035362899303436279e-01 4.072653353214263916e-01
7.404233328998088837e-03 -6.229516267776489258e-01 1.920930892229080200e-01
1.004087030887603760e-01 -1.331216990947723389e-01 7.502397894859313965e-01
-4.479472711682319641e-02 4.090715944766998291e-01 -7.606616020202636719e-01
1.203304678201675415e-01 -1.571128815412521362e-01 -5.622049570083618164e-01
-1.021419614553451538e-01 -4.604772925376892090e-01 -3.569955527782440186e-01
-5.464657396078109741e-02 -4.024131894111633301e-01 6.907057762145996094e-01
1.344378590583801270e-01 -2.672372385859489441e-02 5.355247855186462402e-01
-1.179783493280410767e-01 -4.226819872856140137e-01 1.931486427783966064e-01
9.083473682403564453e-02 -1.023828610777854919e-01 -7.840632200241088867e-01
1.363370418548583984e-01 -3.146950155496597290e-02 5.139332413673400879e-01
-1.377992182970046997e-01 -6.345275789499282837e-02 4.866844713687896729e-01
1.334251761436462402e-01 -2.405709475278854370e-01 3.619683682918548584e-01
-1.151835769414901733e-01 -4.099057912826538086e-01 -3.591191172599792480e-01
-1.500980854034423828e-01 5.830874666571617126e-03 -4.334956109523773193e-01
8.704386651515960693e-02 -2.193073332309722900e-01 -7.379754781723022461e-01
-1.404195576906204224e-01 -2.874513268470764160e-01 2.074721008539199829e-01
7.691984996199607849e-03 -6.323595046997070312e-01 -1.046578288078308105e-01
-1.275381594896316528e-01 1.800181716680526733e-02 -6.689180135726928711e-01
1.313244551420211792e-01 -2.400528639554977417e-01 3.946473896503448486e-01
-1.562875062227249146e-01 -1.262935996055603027e-02 -3.226949274539947510e-01
-1.368801742792129517e-01 4.856193065643310547e-02 4.983035326004028320e-01
-1.125418245792388916e-01 -1.317327916622161865e-01 6.669079065322875977e-01
1.353782117366790771e-01 3.418723344802856445e-01 2.843473479151725769e-02
1.558917388319969177e-02 -5.844506621360778809e-01 3.746304214000701904e-01
-1.516294330358505249e-01 -1.847390681505203247e-01 1.826192885637283325e-01
-1.306041777133941650e-01 2.535012364387512207e-01 4.109031260013580322e-01
-1.089909523725509644e-01 3.491760492324829102e-01 4.809090495109558105e-01
-5.989191681146621704e-02 -4.727834463119506836e-01 -6.006010174751281738e-01
4.047063365578651428e-02 -2.974634170532226562e-01 -8.423891067504882812e-01
1.509953439235687256e-01 1.928503066301345825e-01 5.369710177183151245e-02
1.196301430463790894e-01 4.198811352252960205e-01 1.710114330053329468e-01
-1.507089287042617798e-01 -1.564496457576751709e-01 2.478366941213607788e-01
5.769591778516769409e-02 -5.096542239189147949e-01 4.602325558662414551e-01
1.234312355518341064e-01 -3.511532545089721680e-01 2.465413957834243774e-01
-3.498173132538795471e-02 -4.737367331981658936e-01 -6.618987917900085449e-01
-8.562916517257690430e-02 -3.126951158046722412e-01 -7.386859059333801270e-01
-7.446642220020294189e-02 -4.589291810989379883e-01 5.147027969360351562e-01
5.177744850516319275e-02 6.265179812908172607e-02 9.487326145172119141e-01
-6.616249680519104004e-02 5.081695318222045898e-01 4.556514918804168701e-01
-1.170856952667236328e-01 -3.705321252346038818e-01 -4.396855235099792480e-01
-1.576963812112808228e-01 -1.177726238965988159e-01 1.170507147908210754e-01
-1.418982893228530884e-01 1.857246309518814087e-01 -4.405914247035980225e-01
-1.575992405414581299e-01 8.252370357513427734e-02 -2.511480152606964111e-01
1.073777377605438232e-01 7.638815790414810181e-02 -7.080885767936706543e-01
-9.113034605979919434e-02 2.031462341547012329e-01 7.465925812721252441e-01
2.361720427870750427e-02 4.170423150062561035e-01 7.603660225868225098e-01
7.999118417501449585e-03 -3.780403733253479004e-01 -8.120532035827636719e-01
1.306616663932800293e-01 1.559069603681564331e-01 -4.886096715927124023e-01
-2.782943844795227051e-02 3.684132099151611328e-01 8.026497364044189453e-01
-7.238695025444030762e-02 -4.991147816181182861e-01 4.319329261779785156e-01
8.938518166542053223e-02 4.443538188934326172e-01 -4.655517339706420898e-01
4.685261473059654236e-02 -2.970555126667022705e-01 8.321938514709472656e-01
-1.232115030288696289e-01 3.720200061798095703e-01 2.704844772815704346e-01
7.224349305033683777e-03 1.776930876076221466e-02 9.998412132263183594e-01
1.050471961498260498e-01 4.427273273468017578e-01 -3.139446377754211426e-01
-9.879611432552337646e-02 2.679250836372375488e-01 6.547690033912658691e-01
5.971959605813026428e-02 -1.133663356304168701e-01 -9.024333953857421875e-01
-1.407869458198547363e-01 1.115516126155853271e-01 -5.177304148674011230e-01
-1.196878254413604736e-01 3.205052912235260010e-01 4.278898239135742188e-01
-1.250163018703460693e-01 1.319035440683364868e-01 -6.541303396224975586e-01
9.811687469482421875e-02 3.185010850429534912e-01 6.365028619766235352e-01
1.202969253063201904e-01 -3.084657788276672363e-01 4.141132831573486328e-01
-1.075406819581985474e-01 4.850849509239196777e-01 -8.466956019401550293e-02
-8.869829773902893066e-02 -3.110787272453308105e-01 6.661314368247985840e-01
-1.216793656349182129e-01 5.858221650123596191e-02 -7.055823206901550293e-01
-1.004778444766998291e-01 -3.357820212841033936e-01 -6.337155103683471680e-01
-1.487481296062469482e-01 -6.574504077434539795e-02 -4.414832592010498047e-01
