-5.487568378448486328e-01 -1.602358371019363403e-01 -4.293278977274894714e-02
1.001173630356788635e-01 1.096857935190200806e-01 7.737857103347778320e-02
6.969564557075500488e-01 -1.290991250425577164e-02 -4.888635128736495972e-02
-1.619237512350082397e-01 -1.946404874324798584e-01 -6.909068673849105835e-02
-5.311921238899230957e-01 -1.116284877061843872e-01 -5.316325649619102478e-02
8.633899688720703125e-02 3.181995749473571777e-01 -1.919535733759403229e-02
-6.338583827018737793e-01 -1.582881957292556763e-01 3.551441058516502380e-02
6.631774306297302246e-01 -2.130241096019744873e-01 -2.071009483188390732e-03
5.270626544952392578e-01 1.559875160455703735e-01 -5.192838236689567566e-02
4.102012515068054199e-01 -4.687224701046943665e-02 6.856353580951690674e-02
9.478847682476043701e-02 -3.386690616607666016e-01 2.054069750010967255e-02
4.586915373802185059e-01 -2.626779377460479736e-01 -3.998639062047004700e-02
3.733009099960327148e-02 -1.341326255351305008e-02 8.398835361003875732e-02
-6.764750927686691284e-02 -1.618492603302001953e-01 -7.668706774711608887e-02
5.828182101249694824e-01 5.356508865952491760e-02 4.970585927367210388e-02
-1.729846447706222534e-01 -6.338702887296676636e-02 -8.160303533077239990e-02
2.705656588077545166e-01 2.920184135437011719e-01 1.996359787881374359e-02
-1.130915433168411255e-01 2.097072005271911621e-01 -6.369232386350631714e-02
7.798985838890075684e-01 -5.314704775810241699e-02 9.976099245250225067e-03
-1.045261509716510773e-02 1.963642835617065430e-01 -6.815439462661743164e-02
-3.675082027912139893e-01 -1.774801462888717651e-01 6.348521262407302856e-02
-1.409998536109924316e-01 1.419124305248260498e-01 7.543188333511352539e-02
2.871588766574859619e-01 -3.027054071426391602e-01 3.091193735599517822e-02
-4.602027535438537598e-01 2.574609816074371338e-01 2.609973214566707611e-02
-4.235693812370300293e-01 2.366353869438171387e-01 4.218573123216629028e-02
3.672898113727569580e-01 1.277552843093872070e-01 6.283220648765563965e-02
8.226263523101806641e-02 -1.912616007030010223e-02 -8.663918077945709229e-02
1.554179191589355469e-01 -2.676360905170440674e-01 -5.744197592139244080e-02
-2.740269601345062256e-01 -3.934516757726669312e-02 -7.813931256532669067e-02
-3.962669894099235535e-02 -1.351804286241531372e-01 -8.016131073236465454e-02
-2.564291469752788544e-02 -2.904700636863708496e-01 4.727328568696975708e-02
7.653895616531372070e-01 -1.097664162516593933e-01 -2.061652950942516327e-02
-3.038929700851440430e-01 -9.347979724407196045e-02 7.692483812570571899e-02
-5.870262980461120605e-01 -2.219419926404953003e-01 1.599037274718284607e-02
8.982023224234580994e-03 1.588432937860488892e-01 7.320179045200347900e-02
-6.573414802551269531e-01 1.778310984373092651e-01 -1.004820782691240311e-02
-6.037694215774536133e-01 2.495147660374641418e-02 -5.006964877247810364e-02
-6.679214239120483398e-01 1.388020720332860947e-02 4.983470588922500610e-02
-5.599842667579650879e-01 -1.813266277313232422e-01 4.285524040460586548e-02
6.166272331029176712e-03 1.163782849907875061e-01 -7.990423589944839478e-02
-2.927228212356567383e-01 1.197152808308601379e-01 7.432172447443008423e-02
-4.984693527221679688e-01 -2.189775854349136353e-01 4.029731452465057373e-02
-7.974715530872344971e-02 3.193877339363098145e-01 -1.944037899374961853e-02
-4.529544413089752197e-01 1.944869011640548706e-01 5.226945132017135620e-02
1.888443380594253540e-01 1.688102930784225464e-01 -7.141588628292083740e-02
-2.500947117805480957e-01 1.300100088119506836e-01 -7.172616571187973022e-02
-5.503686666488647461e-01 2.254341095685958862e-01 2.601792663335800171e-02
4.721866846084594727e-01 -1.119470447301864624e-01 5.988512560725212097e-02
-3.974669277667999268e-01 -1.445964425802230835e-01 6.671926379203796387e-02
5.472682118415832520e-01 -1.694965735077857971e-02 5.676519125699996948e-02
5.277708172798156738e-01 -1.746092587709426880e-01 4.565246030688285828e-02
-8.777771890163421631e-02 2.654194235801696777e-01 4.960386827588081360e-02
-4.451246559619903564e-01 -8.826758712530136108e-04 -6.740485876798629761e-02
4.790810048580169678e-01 -2.201884239912033081e-02 -7.363206893205642700e-02
-1.033266931772232056e-01 3.007022738456726074e-01 -3.274058178067207336e-02
-2.059657573699951172e-01 -7.818865031003952026e-02 8.099152892827987671e-02
6.112501621246337891e-01 -1.914222091436386108e-01 2.879130281507968903e-02
-4.334361255168914795e-01 1.822304874658584595e-01 -5.063168331980705261e-02
1.695004999637603760e-01 -1.817967146635055542e-01 6.943897157907485962e-02
4.506204724311828613e-01 4.923881590366363525e-02 -7.330539822578430176e-02
2.077548950910568237e-01 -3.330728411674499512e-01 -2.471668273210525513e-02
4.361397325992584229e-01 7.967387139797210693e-02 -7.186824828386306763e-02
2.105277031660079956e-01 8.878781460225582123e-03 -8.499099314212799072e-02
5.166128873825073242e-01 1.357379555702209473e-01 -5.744571238756179810e-02
-5.030584931373596191e-01 -9.259444475173950195e-02 6.465853750705718994e-02
5.822929739952087402e-02 -3.439164459705352783e-01 1.641391590237617493e-02
1.230410411953926086e-01 -2.782269418239593506e-01 -5.471511185169219971e-02
7.780181616544723511e-02 -1.995405256748199463e-01 -7.293545454740524292e-02
2.378865033388137817e-01 2.573640048503875732e-01 -4.706154391169548035e-02
6.622353196144104004e-01 -1.865324079990386963e-01 1.806252263486385345e-02
-2.862705886363983154e-01 -1.515673100948333740e-01 7.170537114143371582e-02
-5.011275410652160645e-02 -1.960112750530242920e-01 7.039243727922439575e-02
4.826865792274475098e-01 1.898835450410842896e-01 -4.825249314308166504e-02
4.523781538009643555e-01 2.396196126937866211e-01 -3.211951628327369690e-02
5.320167541503906250e-01 9.984077513217926025e-02 -6.164696067571640015e-02
7.745096087455749512e-02 1.236262097954750061e-01 -7.922254502773284912e-02
-3.633209764957427979e-01 6.604290753602981567e-02 7.573683559894561768e-02
-3.590506613254547119e-01 -2.135886847972869873e-01 -5.316779762506484985e-02
5.663771033287048340e-01 -1.269266009330749512e-01 -6.039579212665557861e-02
-3.134525567293167114e-02 2.760782241821289062e-01 -4.600831866264343262e-02
4.549966454505920410e-01 9.179051965475082397e-02 -6.931086629629135132e-02
-4.587309956550598145e-01 1.073252782225608826e-01 -6.027399376034736633e-02
-2.586474120616912842e-01 4.186359792947769165e-02 8.089687675237655640e-02
3.257687091827392578e-01 -1.248643919825553894e-02 -8.187682926654815674e-02
-3.698855340480804443e-01 2.773087471723556519e-02 -7.249552756547927856e-02
-5.023021697998046875e-01 1.158568486571311951e-01 -5.495665594935417175e-02
1.394520103931427002e-01 -5.278889089822769165e-02 8.131755143404006958e-02
-4.085452854633331299e-01 -1.377190649509429932e-01 -6.236905977129936218e-02
2.508495151996612549e-01 -1.942338235676288605e-02 7.804939150810241699e-02
3.656761944293975830e-01 -2.728759944438934326e-01 -4.583645612001419067e-02
7.233122587203979492e-01 5.374649539589881897e-02 2.391096763312816620e-02
4.532231390476226807e-02 -3.023023530840873718e-02 8.372767269611358643e-02
2.177082598209381104e-01 3.345424309372901917e-02 7.860620319843292236e-02
-7.610891461372375488e-01 5.944852903485298157e-02 -1.119983568787574768e-02
3.368963897228240967e-01 1.507805436849594116e-01 -6.870213150978088379e-02
1.255305707454681396e-01 3.423652052879333496e-02 -8.548977971076965332e-02
-1.921049505472183228e-01 1.584769487380981445e-01 -7.038395851850509644e-02
-1.715867072343826294e-01 1.266242116689682007e-01 -7.526661455631256104e-02
-1.962984651327133179e-01 2.452901899814605713e-01 -5.162331461906433105e-02
-1.523674130439758301e-01 -1.259561628103256226e-01 7.839824259281158447e-02
-2.984896600246429443e-01 2.733192741870880127e-01 -3.414344787597656250e-02
3.176233470439910889e-01 -7.220283150672912598e-02 7.345633953809738159e-02
-4.566593170166015625e-01 -1.837849766016006470e-01 5.516402423381805420e-02
-9.548814594745635986e-02 -3.020124435424804688e-01 4.161544144153594971e-02
1.645182222127914429e-01 -3.206034004688262939e-01 3.009904921054840088e-02
-7.353636622428894043e-01 -8.596133440732955933e-02 -1.614834554493427277e-02
5.060120224952697754e-01 1.872133761644363403e-01 3.621645271778106689e-02
1.805950514972209930e-02 1.617445051670074463e-02 -8.613932877779006958e-02
-3.693030476570129395e-01 -1.408389657735824585e-01 6.897270679473876953e-02
6.810573339462280273e-01 -1.499432027339935303e-01 2.472159452736377716e-02
-1.193625666201114655e-02 -3.128441870212554932e-01 -4.094385728240013123e-02
-6.304766535758972168e-01 1.981576234102249146e-01 1.662049628794193268e-02
4.922528564929962158e-01 -1.422566473484039307e-01 -6.554348021745681763e-02
-3.998714089393615723e-01 -2.739600539207458496e-01 -2.653072029352188110e-02
-1.598191559314727783e-01 2.248677760362625122e-01 6.043036282062530518e-02
1.186412274837493896e-01 8.931186050176620483e-02 -8.227098733186721802e-02
6.122873425483703613e-01 1.696108579635620117e-01 2.110697142779827118e-02
7.183056473731994629e-01 1.557979267090559006e-02 -4.342829808592796326e-02
7.746005654335021973e-01 -9.117496758699417114e-02 -2.124399878084659576e-02
-3.719291687011718750e-01 -2.250689268112182617e-01 5.262002721428871155e-02
1.474301367998123169e-01 -1.910280138254165649e-01 -7.387392967939376831e-02
3.313730657100677490e-01 -8.663787692785263062e-02 -7.983454316854476929e-02
1.400035619735717773e-02 8.622710593044757843e-03 -8.625957369804382324e-02
4.418701231479644775e-01 1.184567585587501526e-01 -6.695406138896942139e-02
2.832814753055572510e-01 -5.381587147712707520e-02 -8.290160447359085083e-02
-4.308029115200042725e-01 -5.545653402805328369e-04 7.401733100414276123e-02
6.788819432258605957e-01 1.386940479278564453e-03 -5.162747576832771301e-02
5.359087586402893066e-01 -1.327486932277679443e-01 5.122419819235801697e-02
-7.447689771652221680e-01 -1.051448062062263489e-01 1.263493299484252930e-02
-7.231937646865844727e-01 -4.141737241297960281e-03 -2.858683280646800995e-02
5.610835552215576172e-01 -1.564088314771652222e-01 -5.679886415600776672e-02
2.908640801906585693e-01 -2.463821023702621460e-01 5.106872320175170898e-02
-4.447674453258514404e-01 -4.895778000354766846e-02 -6.659480929374694824e-02
5.133779644966125488e-01 2.128868699073791504e-01 -3.478694334626197815e-02
6.163501143455505371e-01 -2.278645187616348267e-01 1.124977692961692810e-02
-6.202115416526794434e-01 -1.628232002258300781e-01 -2.908237464725971222e-02
1.763116121292114258e-01 -1.746757030487060547e-01 -7.584497332572937012e-02
-6.186794638633728027e-01 1.650924980640411377e-02 5.691878125071525574e-02
4.684794247150421143e-01 -2.364449650049209595e-01 -4.851347953081130981e-02
-1.529031991958618164e-01 -3.869748860597610474e-02 8.356780558824539185e-02
-1.860051006078720093e-01 -1.648837625980377197e-01 -7.257529348134994507e-02
1.854568272829055786e-01 -3.390325903892517090e-01 1.403126772493124008e-02
2.990473210811614990e-01 1.961161196231842041e-01 5.561633780598640442e-02
-5.273941755294799805e-01 2.277143895626068115e-01 -2.224197238683700562e-02
-5.536690950393676758e-01 3.763822838664054871e-02 -5.592196062207221985e-02
1.108624860644340515e-01 4.248936474323272705e-02 8.162723481655120850e-02
-4.093977212905883789e-01 1.061861142516136169e-01 7.006578892469406128e-02
-5.462611317634582520e-01 1.583684235811233521e-02 6.494183838367462158e-02
-9.763629734516143799e-02 -6.794309616088867188e-02 8.309882134199142456e-02
-2.942822314798831940e-02 -2.545891106128692627e-01 5.825376138091087341e-02
-1.823621839284896851e-01 -6.451889127492904663e-02 8.218398690223693848e-02
-3.313422203063964844e-01 2.067718207836151123e-01 -5.379737913608551025e-02
7.246192097663879395e-01 7.197946310043334961e-02 -3.414394706487655640e-02
2.609590999782085419e-02 -3.483907282352447510e-01 1.074364781379699707e-02
3.450814187526702881e-01 1.440508365631103516e-01 -6.934210658073425293e-02
-1.294559426605701447e-02 1.541556566953659058e-01 -7.515954226255416870e-02
-2.857288122177124023e-01 -3.658775240182876587e-02 8.044412732124328613e-02
1.580392718315124512e-01 9.127922356128692627e-02 -8.163210004568099976e-02
-3.165745437145233154e-01 -3.163154423236846924e-01 -3.319122130051255226e-03
-1.002655550837516785e-01 -6.882286816835403442e-02 -8.350308984518051147e-02
-5.890252590179443359e-01 3.668590262532234192e-02 -5.160569399595260620e-02
-4.126970469951629639e-01 1.319390088319778442e-01 -6.121713295578956604e-02
-5.672910809516906738e-01 -1.216750890016555786e-01 -4.711822047829627991e-02
-4.430353641510009766e-01 -2.363094091415405273e-01 -3.698363155126571655e-02
5.962623953819274902e-01 -2.061367332935333252e-01 2.706419304013252258e-02
-4.373892247676849365e-01 2.714424133300781250e-01 -1.303409971296787262e-02
-2.017576843500137329e-01 2.729851305484771729e-01 -4.158424213528633118e-02
4.744672179222106934e-01 2.688992768526077271e-02 -7.286994904279708862e-02
3.109854459762573242e-01 -2.809715569019317627e-01 3.854521736502647400e-02
-4.362410306930541992e-01 -1.231372505426406860e-01 -6.171779334545135498e-02
6.106137633323669434e-01 -8.444695919752120972e-02 4.672047495841979980e-02
8.596199750900268555e-02 -4.412175621837377548e-03 8.319673687219619751e-02
5.694984197616577148e-01 -1.312819421291351318e-01 4.735739156603813171e-02
1.839431971311569214e-01 -2.195318043231964111e-01 6.245175004005432129e-02
-1.545677185058593750e-01 -9.849298745393753052e-02 8.067023754119873047e-02
-2.791416347026824951e-01 -5.667513236403465271e-02 -7.734126597642898560e-02
7.210582494735717773e-01 8.910334855318069458e-02 -3.084197267889976501e-02
-2.434719353914260864e-01 -2.058439105749130249e-01 6.461093574762344360e-02
-7.157568931579589844e-01 6.389899551868438721e-02 -2.672131359577178955e-02
6.747812032699584961e-01 -8.888255804777145386e-02 -4.984267055988311768e-02
-2.954930625855922699e-02 -8.875086158514022827e-02 -8.387222141027450562e-02
3.096261247992515564e-02 2.015330493450164795e-01 6.565176695585250854e-02
7.660569250583648682e-02 3.093361854553222656e-01 -2.776667848229408264e-02
5.666204094886779785e-01 1.931111365556716919e-01 -3.306183218955993652e-02
4.573814868927001953e-01 -1.868516653776168823e-01 -6.150645017623901367e-02
4.353981316089630127e-01 -2.446927279233932495e-01 3.903215005993843079e-02
-3.077116906642913818e-01 2.593811601400375366e-02 7.974305003881454468e-02
-2.267358154058456421e-01 2.011039406061172485e-01 -6.134646385908126831e-02
2.684483826160430908e-01 9.297634661197662354e-02 -7.884788513183593750e-02
-3.486519157886505127e-01 -2.815870344638824463e-01 -3.060507774353027344e-02
-1.599016189575195312e-01 -2.224750220775604248e-01 -6.396693736314773560e-02
6.137851253151893616e-02 -7.253342773765325546e-03 8.364424109458923340e-02
-4.513093829154968262e-01 2.301900982856750488e-01 -3.469824418425559998e-02
4.003700911998748779e-01 -1.786409616470336914e-01 5.750650167465209961e-02
3.919880092144012451e-01 -3.035873174667358398e-01 1.620958000421524048e-02
1.985839158296585083e-01 -1.149994041770696640e-02 -8.547347038984298706e-02
3.718414008617401123e-01 -1.882622390985488892e-01 -6.705436110496520996e-02
2.262539565563201904e-01 1.286401003599166870e-01 7.100632786750793457e-02
6.912509202957153320e-01 3.377236798405647278e-02 -4.743659868836402893e-02
2.778980322182178497e-02 -2.089682221412658691e-02 -8.652496337890625000e-02
1.609931290149688721e-01 2.251723855733871460e-01 -6.029183045029640198e-02
3.617809116840362549e-01 -1.216148808598518372e-01 -7.599741965532302856e-02
6.770650744438171387e-01 -1.884346902370452881e-01 -2.623412944376468658e-02
-2.248932123184204102e-01 -1.136532984673976898e-02 -8.072099089622497559e-02
4.992130398750305176e-01 2.451830506324768066e-01 2.448744140565395355e-03
-1.173612251877784729e-01 -1.803860813379287720e-02 -8.427931368350982666e-02
3.770763576030731201e-01 2.933119609951972961e-02 -7.863842695951461792e-02
2.803963124752044678e-01 -1.434599161148071289e-01 -7.709786295890808105e-02
-1.611307859420776367e-01 1.361612826585769653e-01 -7.448392361402511597e-02
-4.221069160848855972e-03 4.146734997630119324e-02 8.348601311445236206e-02
-5.859122872352600098e-01 1.622597277164459229e-01 -3.523337468504905701e-02
-3.299284577369689941e-01 -1.001519933342933655e-01 -7.194214314222335815e-02
-5.098355412483215332e-01 -1.775723248720169067e-01 -4.470040276646614075e-02
5.364388227462768555e-01 -1.495363265275955200e-01 -6.051975861191749573e-02
5.928040742874145508e-01 5.097484961152076721e-02 4.859896376729011536e-02
-3.613685369491577148e-01 -3.413006290793418884e-02 7.739272713661193848e-02
-1.345883011817932129e-01 2.599439322948455811e-01 5.088717862963676453e-02
4.496491849422454834e-01 -2.250044420361518860e-02 -7.561735063791275024e-02
4.026382267475128174e-01 -1.652871966361999512e-01 5.939513444900512695e-02
-5.318524837493896484e-01 -4.203907772898674011e-02 -5.848667398095130920e-02
-2.452434599399566650e-01 1.264197379350662231e-01 7.515021413564682007e-02
-1.768543384969234467e-03 -5.250756815075874329e-02 -8.576349914073944092e-02
5.738969445228576660e-01 -2.511848211288452148e-01 -2.185818552970886230e-02
3.236575424671173096e-01 1.770392805337905884e-01 -6.464099884033203125e-02
-4.965388774871826172e-01 -5.946077778935432434e-02 -6.136501953005790710e-02
3.012807369232177734e-01 -6.449013948440551758e-02 7.465750724077224731e-02
-4.125804901123046875e-01 9.112016111612319946e-02 -6.577265262603759766e-02
9.189519099891185760e-03 5.736669525504112244e-02 8.267556875944137573e-02
-3.016211092472076416e-01 2.851224839687347412e-01 -2.736214920878410339e-02
4.254688918590545654e-01 1.036939993500709534e-01 -7.002840936183929443e-02
-1.000895574688911438e-01 3.280045390129089355e-01 1.466458430513739586e-03
-1.409687697887420654e-01 2.425876855850219727e-01 -5.466673895716667175e-02
2.495837211608886719e-01 3.303245827555656433e-02 -8.333626389503479004e-02
-4.970995783805847168e-01 1.196886822581291199e-01 6.206372380256652832e-02
-6.182304024696350098e-01 9.039986133575439453e-02 5.214482545852661133e-02
-5.246865749359130859e-01 1.020302530378103256e-02 -5.988827347755432129e-02
4.052758514881134033e-01 3.183985128998756409e-02 6.833039224147796631e-02
3.045540153980255127e-01 -1.315674185752868652e-01 6.983915716409683228e-02
4.579582512378692627e-01 4.098026081919670105e-02 -7.330945134162902832e-02
6.789603829383850098e-02 3.272412344813346863e-02 -8.580917119979858398e-02
1.669898033142089844e-01 -1.003637611865997314e-01 7.816369831562042236e-02
-5.736605525016784668e-01 1.352281868457794189e-01 5.152772739529609680e-02
-2.175645679235458374e-01 3.583496436476707458e-02 -8.021378517150878906e-02
1.416821181774139404e-01 2.794675827026367188e-01 3.925212472677230835e-02
-6.789271235466003418e-01 8.336168527603149414e-02 -3.293327614665031433e-02
-1.594137400388717651e-03 -1.433693617582321167e-01 -7.988195121288299561e-02
5.869934558868408203e-01 -9.532819688320159912e-02 -6.131533533334732056e-02
-1.809746921062469482e-01 7.093272358179092407e-02 -7.983385026454925537e-02
1.151152923703193665e-01 -2.332192510366439819e-01 6.170444190502166748e-02
3.236908018589019775e-01 -1.814300566911697388e-01 -7.055266946554183960e-02
4.728704690933227539e-01 -9.218436479568481445e-02 -7.177004963159561157e-02
-6.240377426147460938e-01 -2.505413442850112915e-02 -4.727144166827201843e-02
1.774803847074508667e-01 -7.786456495523452759e-02 -8.442845195531845093e-02
4.917102158069610596e-01 2.144360542297363281e-01 -3.799682855606079102e-02
-7.316882014274597168e-01 -2.764979749917984009e-02 3.601540252566337585e-02
4.550792574882507324e-01 4.952944815158843994e-02 6.348741799592971802e-02
7.517518997192382812e-01 5.591376498341560364e-02 1.394342351704835892e-02
3.532079160213470459e-01 2.585105895996093750e-01 2.977019920945167542e-02
3.829044699668884277e-01 -2.460008263587951660e-01 -5.346956849098205566e-02
-1.293487846851348877e-01 -3.369497060775756836e-01 1.724202744662761688e-02
-9.731478989124298096e-02 -2.399001643061637878e-02 8.438570797443389893e-02
3.462722599506378174e-01 -9.194370359182357788e-03 -8.101885765790939331e-02
-1.927123963832855225e-02 1.375948637723922729e-01 -7.728702574968338013e-02
-1.987991183996200562e-01 3.445034846663475037e-02 8.260549604892730713e-02
5.815373659133911133e-01 2.804572507739067078e-02 5.158962681889533997e-02
5.469756573438644409e-02 3.254088759422302246e-01 -1.061108428984880447e-02
-6.955014467239379883e-01 1.267945915460586548e-01 2.993622235953807831e-02
-1.863206475973129272e-01 -3.080840706825256348e-01 -3.458654880523681641e-02
7.785286754369735718e-02 1.227084826678037643e-02 -8.637073636054992676e-02
-1.034950762987136841e-01 2.726122140884399414e-01 -4.591303318738937378e-02
4.768117666244506836e-01 2.410258650779724121e-01 -2.581675350666046143e-02
-1.921146214008331299e-01 -1.625190824270248413e-01 7.337456941604614258e-02
-1.821006387472152710e-01 -1.039928346872329712e-01 7.976397871971130371e-02
5.365715622901916504e-01 1.933373808860778809e-01 2.876574173569679260e-02
3.178088963031768799e-01 2.240941673517227173e-01 -5.336207896471023560e-02
7.349299192428588867e-01 -1.079996675252914429e-01 1.907516270875930786e-02
4.057432115077972412e-01 -2.228739857673645020e-01 -5.788597464561462402e-02
6.499246954917907715e-01 2.493508905172348022e-02 4.201008379459381104e-02
-2.230968326330184937e-01 -1.455586254596710205e-01 -7.334992289543151855e-02
3.338267803192138672e-01 -2.462883293628692627e-01 4.809769615530967712e-02
-5.452685952186584473e-01 1.064669061452150345e-02 -5.764978751540184021e-02
6.813889741897583008e-01 -1.384675502777099609e-01 2.729968912899494171e-02
-1.580593734979629517e-01 2.444779276847839355e-01 5.524736642837524414e-02
2.346789836883544922e-01 -2.456601858139038086e-01 5.443558096885681152e-02
1.050020568072795868e-02 3.254163265228271484e-01 -1.292964722961187363e-02
6.181177496910095215e-01 -2.298528701066970825e-02 4.806908220052719116e-02
-4.428046047687530518e-01 -1.562315877526998520e-02 7.316155731678009033e-02
5.277138948440551758e-02 -2.842436730861663818e-01 4.912433400750160217e-02
3.321335315704345703e-01 -5.582052096724510193e-02 -8.111266791820526123e-02
3.744536340236663818e-01 -9.584210813045501709e-02 -7.737534493207931519e-02
6.094073057174682617e-01 -1.476557552814483643e-01 -5.211733654141426086e-02
-2.222559005022048950e-01 2.430982887744903564e-01 5.381633713841438293e-02
-1.325109973549842834e-02 -2.564860880374908447e-01 -6.046260148286819458e-02
6.706839203834533691e-01 1.100513264536857605e-01 2.614570222795009613e-02
-7.119739055633544922e-01 -1.085800006985664368e-01 2.885025367140769958e-02
3.578988909721374512e-01 1.009453237056732178e-01 -7.432046532630920410e-02
7.218331098556518555e-01 -1.043184399604797363e-01 -3.827403485774993896e-02
-2.621363699436187744e-01 2.861933708190917969e-01 -3.087048605084419250e-02
-3.003846108913421631e-01 1.262466516345739365e-02 -7.697895914316177368e-02
5.501637458801269531e-01 5.327031947672367096e-03 -6.744267791509628296e-02
1.019486114382743835e-01 -2.329156175255775452e-02 8.281826972961425781e-02
-1.883808374404907227e-01 2.111999839544296265e-01 6.298620253801345825e-02
3.898647129535675049e-01 1.608619540929794312e-01 -6.370741873979568481e-02
-1.544594019651412964e-01 -3.232657313346862793e-01 -2.790287695825099945e-02
-6.315200924873352051e-01 -1.794282495975494385e-01 2.797418832778930664e-02
4.909612536430358887e-01 5.907033756375312805e-02 5.957156047224998474e-02
-2.686561048030853271e-01 2.242616713047027588e-01 -5.363016575574874878e-02
1.581635475158691406e-01 3.047575056552886963e-01 2.342740260064601898e-02
-5.682326555252075195e-01 -1.055607292801141739e-02 -5.504508689045906067e-02
-2.117204368114471436e-01 1.838411688804626465e-01 -6.541152298450469971e-02
4.758367240428924561e-01 -2.213036715984344482e-01 -5.213669687509536743e-02
-6.439308524131774902e-01 1.000989526510238647e-01 -3.744994848966598511e-02
-3.105230629444122314e-01 -1.341198086738586426e-01 7.280826568603515625e-02
-6.104469299316406250e-01 -1.965424567461013794e-01 2.580140531063079834e-02
-5.888791680335998535e-01 -3.906211629509925842e-02 -5.173866450786590576e-02
-3.814348205924034119e-02 -3.004086017608642578e-01 -4.576824605464935303e-02
-2.114643305540084839e-01 4.920142889022827148e-02 8.180826157331466675e-02
-3.909424245357513428e-01 2.812292873859405518e-01 2.149430476129055023e-02
4.093404710292816162e-01 1.630254983901977539e-01 5.360646918416023254e-02
-1.899540722370147705e-01 2.746377587318420410e-01 -4.155500233173370361e-02
2.715761661529541016e-01 2.056863158941268921e-02 7.667320221662521362e-02
6.868864297866821289e-01 -1.100725010037422180e-01 -4.518365487456321716e-02
4.865171387791633606e-02 1.053388193249702454e-01 -8.115156739950180054e-02
5.168934464454650879e-01 -1.819911897182464600e-01 4.553273320198059082e-02
-2.021516412496566772e-01 3.186487853527069092e-01 -8.421814069151878357e-03
-2.826250493526458740e-01 -2.481829673051834106e-01 -5.046228691935539246e-02
1.024308800697326660e-01 8.037481456995010376e-02 7.974781841039657593e-02
3.737683296203613281e-01 -2.678054869174957275e-01 3.771738335490226746e-02
-6.724322438240051270e-01 7.658168673515319824e-02 -3.516251966357231140e-02
-3.758491873741149902e-01 2.811257541179656982e-01 -1.897065341472625732e-02
7.953910529613494873e-02 -1.998909935355186462e-02 8.329434692859649658e-02
-2.526881098747253418e-01 2.997693121433258057e-01 -2.291316911578178406e-02
-7.419728040695190430e-01 2.091783285140991211e-02 3.374607115983963013e-02
5.371659398078918457e-01 -1.237227171659469604e-01 5.215985700488090515e-02
-1.843276470899581909e-01 2.869509458541870117e-01 -3.627815842628479004e-02
-5.207417607307434082e-01 -1.961094439029693604e-01 -3.829398006200790405e-02
2.645461857318878174e-01 -2.290252298116683960e-01 -6.415543705224990845e-02
-1.393188834190368652e-01 -2.720926702022552490e-01 -5.211777612566947937e-02
2.443965375423431396e-01 -3.125281929969787598e-01 -3.663576766848564148e-02
6.845800280570983887e-01 -2.865562960505485535e-02 3.742167726159095764e-02
-1.844678223133087158e-01 -4.357732832431793213e-04 -8.222539722919464111e-02
-1.418010890483856201e-01 2.283992767333984375e-01 -5.846726894378662109e-02
3.184408843517303467e-01 -3.171460628509521484e-01 1.789423637092113495e-02
-4.696082323789596558e-02 -1.698147058486938477e-01 -7.609646767377853394e-02
-3.740337789058685303e-01 -1.065565347671508789e-01 7.250036299228668213e-02
-1.422172337770462036e-01 -3.432247638702392578e-01 1.066615572199225426e-03
-2.273621112108230591e-01 -3.057393431663513184e-01 3.291879221796989441e-02
1.946339160203933716e-01 2.122156023979187012e-01 5.811949446797370911e-02
2.833313345909118652e-01 -1.016743481159210205e-01 -8.063063025474548340e-02
6.203896552324295044e-02 -9.355757385492324829e-02 -8.433937281370162964e-02
-3.971125185489654541e-01 4.734123125672340393e-02 7.493992894887924194e-02
-4.851284027099609375e-01 -1.360975764691829681e-02 7.019644230604171753e-02
-1.595258861780166626e-01 -3.334499299526214600e-01 -1.845703832805156708e-02
-1.824337840080261230e-01 2.463440895080566406e-01 -5.193910375237464905e-02
-1.669881790876388550e-01 -3.202400505542755127e-01 2.858955599367618561e-02
2.288398593664169312e-01 -3.257870972156524658e-01 2.203286625444889069e-02
3.243595361709594727e-01 -2.435114234685897827e-01 4.955394193530082703e-02
2.732907831668853760e-01 -6.218615919351577759e-02 -8.294562250375747681e-02
-3.253146111965179443e-01 -2.111712545156478882e-01 -5.655191093683242798e-02
1.749065220355987549e-01 3.001830577850341797e-01 -2.906698733568191528e-02
-1.085312440991401672e-01 3.250798583030700684e-01 1.105504389852285385e-02
-4.012810885906219482e-01 1.253230590373277664e-02 -7.066539674997329712e-02
6.434296369552612305e-01 1.301633864641189575e-01 2.728651091456413269e-02
-3.853395581245422363e-01 3.525978885591030121e-03 -7.190801203250885010e-02
7.142089605331420898e-01 1.086120158433914185e-01 1.276177912950515747e-02
3.170850574970245361e-01 -2.705281078815460205e-01 4.189089685678482056e-02
6.836654543876647949e-01 -1.712883561849594116e-01 1.741267740726470947e-02
-6.870731711387634277e-01 -7.394746690988540649e-02 -3.245307132601737976e-02
4.199670255184173584e-01 -2.080379873514175415e-01 5.029073357582092285e-02
-2.642631344497203827e-02 2.830888330936431885e-01 -4.316696897149085999e-02
3.483138978481292725e-01 -1.564965583384037018e-02 7.304585725069046021e-02
6.137379407882690430e-01 -2.350070476531982422e-01 -1.964944042265415192e-02
-2.202622964978218079e-02 2.189102470874786377e-01 -6.326778978109359741e-02
2.325755916535854340e-02 -2.698769271373748779e-01 5.393300950527191162e-02
3.269712030887603760e-01 2.168460190296173096e-01 4.822176322340965271e-02
5.026999711990356445e-01 -9.740128368139266968e-02 5.826413258910179138e-02
5.508508086204528809e-01 -6.034392118453979492e-02 -6.707060337066650391e-02
4.401203393936157227e-01 1.745772510766983032e-01 -5.682636424899101257e-02
-1.122798100113868713e-01 -2.837368547916412354e-01 4.834683984518051147e-02
-5.017470121383666992e-01 1.706150621175765991e-01 5.295820534229278564e-02
-6.204595416784286499e-02 -2.710463106632232666e-01 5.341205000877380371e-02
1.064460128545761108e-01 5.960083380341529846e-02 8.093424886465072632e-02
1.327124536037445068e-01 -2.201022654771804810e-01 -6.900340318679809570e-02
7.755383253097534180e-01 5.861594155430793762e-02 -8.620330132544040680e-03
6.772547364234924316e-01 1.517421752214431763e-01 5.921924486756324768e-03
1.541404612362384796e-02 1.633980423212051392e-01 -7.399591058492660522e-02
2.525975704193115234e-01 -8.917380124330520630e-02 7.572591304779052734e-02
-2.368344217538833618e-01 -3.244291543960571289e-01 -1.617887616157531738e-02
3.245737254619598389e-01 2.707020640373229980e-01 -3.339102864265441895e-02
-1.243874430656433105e-01 -2.168370932340621948e-01 6.584206968545913696e-02
-3.244321346282958984e-01 5.072944983839988708e-02 7.825182378292083740e-02
-3.857719600200653076e-01 -1.837022602558135986e-01 -5.712314695119857788e-02
-2.371138632297515869e-01 -2.524553835391998291e-01 5.367812886834144592e-02
-7.371042668819427490e-02 2.850898206233978271e-01 4.199467599391937256e-02
6.481130719184875488e-01 -2.205755114555358887e-01 -1.469366066157817841e-02
-4.324208199977874756e-01 9.011512249708175659e-02 -6.427662074565887451e-02
-5.746465176343917847e-02 -1.068391948938369751e-01 8.089336752891540527e-02
8.350770175457000732e-02 -2.732988595962524414e-01 -5.651380494236946106e-02
-5.966736674308776855e-01 2.105073630809783936e-01 2.158560231328010559e-02
-7.554388046264648438e-01 1.224741246551275253e-02 -1.862509176135063171e-02
-6.871632933616638184e-01 -3.487666323781013489e-02 -3.584553301334381104e-02
3.812650740146636963e-01 -8.887187391519546509e-02 6.869943439960479736e-02
-4.752089977264404297e-01 -3.611000627279281616e-02 -6.435948610305786133e-02
-4.407730698585510254e-02 1.240646559745073318e-02 8.444084972143173218e-02
-5.973699688911437988e-01 -2.053779959678649902e-01 2.491965144872665405e-02
-6.785585284233093262e-01 1.286985427141189575e-01 -2.399100176990032196e-02
-1.283375173807144165e-02 1.198998913168907166e-01 -7.938171923160552979e-02
6.669956445693969727e-01 -3.711027279496192932e-02 4.041668027639389038e-02
-2.424339354038238525e-01 -2.202333137392997742e-02 8.206394314765930176e-02
4.922950863838195801e-01 2.355525195598602295e-01 -2.589707449078559875e-02
-6.268130540847778320e-01 -1.486284881830215454e-01 3.982907906174659729e-02
-2.425238937139511108e-01 -2.802039682865142822e-02 -7.983719557523727417e-02
1.399953961372375488e-01 1.053319871425628662e-01 -8.060391247272491455e-02
-4.634323716163635254e-01 5.169175937771797180e-02 -6.437000632286071777e-02
5.189049243927001953e-01 -8.078542351722717285e-02 5.781979113817214966e-02
-2.969438433647155762e-01 3.069272637367248535e-01 -6.492141634225845337e-03
1.121095567941665649e-02 2.265576273202896118e-01 -6.165404245257377625e-02
5.540688056498765945e-03 -2.707140743732452393e-01 -5.683619901537895203e-02
1.502598971128463745e-01 -2.747817337512969971e-02 -8.615568280220031738e-02
-5.056258440017700195e-01 -2.526598870754241943e-01 -1.512935012578964233e-02
-2.706229984760284424e-01 3.304578736424446106e-02 -7.797824591398239136e-02
-6.840624809265136719e-01 9.484063088893890381e-02 4.017806053161621094e-02
4.749120771884918213e-02 -2.426428794860839844e-01 -6.448937952518463135e-02
5.294165015220642090e-01 3.350861370563507080e-02 -6.813690811395645142e-02
5.858756899833679199e-01 1.190700307488441467e-01 -5.214674025774002075e-02
-1.098942458629608154e-01 1.800495833158493042e-01 7.018293440341949463e-02
-5.089461207389831543e-01 -1.018754392862319946e-01 -5.680047348141670227e-02
5.789490938186645508e-01 1.756128966808319092e-01 -3.795295953750610352e-02
-2.478862106800079346e-01 -3.417087718844413757e-04 -7.970133423805236816e-02
-3.700036704540252686e-01 1.686116904020309448e-01 -5.883837491273880005e-02
-6.133575439453125000e-01 -7.459313422441482544e-02 5.423960089683532715e-02
-4.855313301086425781e-01 -2.358251214027404785e-01 3.558909520506858826e-02
1.168064214289188385e-02 -2.642781734466552734e-01 5.560588091611862183e-02
-1.517835110425949097e-01 1.198635622859001160e-01 -7.664101570844650269e-02
8.875533007085323334e-03 -3.222008049488067627e-01 -3.653555363416671753e-02
3.941544294357299805e-01 2.608384191989898682e-01 2.168609388172626495e-02
1.746882796287536621e-01 -2.189346849918365479e-01 -6.864898651838302612e-02
2.497638761997222900e-01 2.069970816373825073e-01 5.633203312754631042e-02
-2.336707562208175659e-01 1.229119524359703064e-01 7.585497945547103882e-02
-1.716690361499786377e-01 -1.041234955191612244e-01 -7.933551073074340820e-02
2.832513749599456787e-01 -2.294818609952926636e-01 5.567635968327522278e-02
4.385049641132354736e-01 2.143947929143905640e-01 -4.551172256469726562e-02
6.040659546852111816e-01 -4.367441684007644653e-02 -6.206980347633361816e-02
4.735737740993499756e-01 2.484180033206939697e-01 1.107974629849195480e-02
-4.998957514762878418e-01 1.952591240406036377e-01 -3.962104022502899170e-02
-9.860266745090484619e-02 4.816251248121261597e-02 -8.338885009288787842e-02
-5.338253378868103027e-01 1.103653758764266968e-01 5.977757647633552551e-02
4.666602909564971924e-01 -2.475084550678730011e-02 -7.449220120906829834e-02
-6.325061321258544922e-01 -1.017944440245628357e-01 -3.964193165302276611e-02
5.450795292854309082e-01 -2.377572953701019287e-01 2.509311214089393616e-02
9.104449301958084106e-02 -1.550053060054779053e-01 7.498582452535629272e-02
-6.981498003005981445e-01 6.999820470809936523e-05 4.450458660721778870e-02
-4.242748022079467773e-01 1.460291445255279541e-01 6.410870701074600220e-02
-1.772260814905166626e-01 1.877292618155479431e-02 -8.218612521886825562e-02
-4.106170311570167542e-02 -1.898436099290847778e-01 7.141192257404327393e-02
-7.827591300010681152e-01 -5.417198874056339264e-03 -4.092479124665260315e-03
-2.435964941978454590e-01 2.284903228282928467e-01 5.711719021201133728e-02
-4.290891438722610474e-02 6.772200763225555420e-02 -8.336482942104339600e-02
1.625815629959106445e-01 2.901638448238372803e-01 -3.619384765625000000e-02
-1.399792432785034180e-01 -2.268530726432800293e-01 6.345099955797195435e-02
5.805786252021789551e-01 -1.138648465275764465e-01 4.802241921424865723e-02
-2.890086472034454346e-01 1.590005010366439819e-01 6.941638141870498657e-02
-5.771844387054443359e-01 -1.954104751348495483e-01 -2.776528149843215942e-02
-7.951018959283828735e-02 2.174593061208724976e-01 -6.274558603763580322e-02
-5.361235141754150391e-02 -3.470262885093688965e-01 -1.215362548828125000e-02
5.767970085144042969e-01 -2.524953484535217285e-01 6.502297706902027130e-03
1.564405709505081177e-01 2.442401349544525146e-01 -5.504303425550460815e-02
2.226794697344303131e-02 1.655307412147521973e-01 7.205139845609664917e-02
3.989331889897584915e-03 2.651930153369903564e-01 4.934997111558914185e-02
-2.389228343963623047e-01 -3.203473985195159912e-01 2.106968313455581665e-02
-6.088976562023162842e-02 -2.790713012218475342e-01 -5.285164341330528259e-02
-4.737635701894760132e-02 -1.582814380526542664e-02 8.457302302122116089e-02
-5.055004954338073730e-01 2.563990652561187744e-01 1.167114172130823135e-02
4.883070886135101318e-01 4.542604833841323853e-02 -7.082716375589370728e-02
5.862149596214294434e-01 -1.301081180572509766e-01 4.530379921197891235e-02
2.667191326618194580e-01 -1.358924992382526398e-02 7.735502719879150391e-02
3.221001327037811279e-01 -1.418403685092926025e-01 -7.574832439422607422e-02
2.764565348625183105e-01 -6.941887084394693375e-03 -8.354418724775314331e-02
-3.855919539928436279e-01 2.108705788850784302e-01 5.378187820315361023e-02
6.335919499397277832e-01 -1.818775832653045654e-01 2.698238752782344818e-02
-2.449383735656738281e-01 2.960500419139862061e-01 -2.644371800124645233e-02
6.218972206115722656e-01 -3.078217059373855591e-02 4.748399555683135986e-02
7.210335135459899902e-01 -2.761310338973999023e-02 -4.425130039453506470e-02
-3.545174300670623779e-01 2.172427773475646973e-01 5.430295690894126892e-02
-2.865086495876312256e-01 -2.267962694168090820e-01 -5.586482957005500793e-02
-2.450491487979888916e-01 1.470293253660202026e-01 7.263050973415374756e-02
3.774323463439941406e-01 1.743297576904296875e-01 5.419123917818069458e-02
5.843362808227539062e-01 7.401538640260696411e-02 4.752862825989723206e-02
-4.029684513807296753e-02 -9.971354901790618896e-02 -8.303125202655792236e-02
-2.903395593166351318e-01 1.433555036783218384e-01 7.158529758453369141e-02
-3.882702291011810303e-01 2.442667782306671143e-01 -3.725465759634971619e-02
6.368999481201171875e-01 -9.802417457103729248e-02 4.164270311594009399e-02
2.704752683639526367e-01 -2.779153883457183838e-01 -5.036751925945281982e-02
4.720579981803894043e-01 2.132070511579513550e-01 -4.156775400042533875e-02
5.576226115226745605e-01 1.429075598716735840e-01 -5.101799592375755310e-02
9.483964741230010986e-02 7.331716269254684448e-02 8.039531111717224121e-02
-7.657042145729064941e-02 1.790420860052108765e-01 -7.041135430335998535e-02
-2.681431770324707031e-01 -3.057200312614440918e-01 -2.741002477705478668e-02
-2.718816101551055908e-01 -1.675698459148406982e-01 -6.797032058238983154e-02
7.312778383493423462e-02 -2.030008584260940552e-01 6.841024011373519897e-02
-4.306054115295410156e-01 -1.721884310245513916e-01 -5.504729226231575012e-02
-1.868919432163238525e-01 6.027124449610710144e-02 -8.025950938463211060e-02
-7.195623964071273804e-02 3.706290200352668762e-02 8.385668694972991943e-02
9.548959136009216309e-02 1.171590909361839294e-01 7.674878835678100586e-02
3.495788574218750000e-01 -2.991076111793518066e-01 -3.511900454759597778e-02
-6.297412514686584473e-01 -1.723440587520599365e-01 -2.335979044437408447e-02
2.571146488189697266e-01 1.621496677398681641e-01 -7.041215151548385620e-02
2.946069650352001190e-02 1.482550799846649170e-01 -7.621929049491882324e-02
1.210170686244964600e-01 -1.046154201030731201e-01 7.910569012165069580e-02
-1.771431863307952881e-01 -2.216321378946304321e-01 6.364144384860992432e-02
3.217498362064361572e-01 1.359578371047973633e-01 6.485097855329513550e-02
-1.812570840120315552e-01 1.123689338564872742e-01 -7.645510137081146240e-02
-1.127949580550193787e-01 -8.304163813591003418e-02 -8.249776065349578857e-02
-3.007439374923706055e-01 -1.366720646619796753e-01 7.294109463691711426e-02
-5.407112836837768555e-01 1.466351151466369629e-01 5.348098650574684143e-02
4.769737720489501953e-01 -8.465199172496795654e-02 6.155622005462646484e-02
4.817789494991302490e-01 1.084496304392814636e-01 5.543160438537597656e-02
-5.387393832206726074e-01 2.123180925846099854e-01 3.540153428912162781e-02
1.320947408676147461e-01 5.107748135924339294e-02 8.071295917034149170e-02
2.552058920264244080e-02 2.467142939567565918e-01 -5.624197423458099365e-02
-1.584200263023376465e-01 3.107367455959320068e-01 -2.294913306832313538e-02
3.790092170238494873e-01 1.220429763197898865e-01 -7.062759995460510254e-02
9.145484864711761475e-02 6.356295943260192871e-02 8.105573058128356934e-02
6.556761860847473145e-01 -9.426188468933105469e-02 -5.241899937391281128e-02
1.296866387128829956e-01 -6.796775758266448975e-02 -8.539573103189468384e-02
9.644556045532226562e-02 1.669936180114746094e-01 7.035510987043380737e-02
7.339917421340942383e-01 2.171999961137771606e-02 -3.922932967543601990e-02
-5.012632906436920166e-02 -2.357082068920135498e-02 8.450742065906524658e-02
1.972972899675369263e-01 3.144472837448120117e-01 5.305930972099304199e-03
-7.534692883491516113e-01 -8.041632175445556641e-02 -8.678420446813106537e-03
-1.974409669637680054e-01 -1.425820738077163696e-01 -7.481606304645538330e-02
-2.402195930480957031e-01 -4.594675824046134949e-02 8.157453685998916626e-02
-6.040869355201721191e-01 -2.093697935342788696e-01 1.952116563916206360e-02
4.054772555828094482e-01 -2.229841053485870361e-01 4.816857352852821350e-02
3.453931510448455811e-01 1.752397269010543823e-01 -6.375382095575332642e-02
-1.917834877967834473e-01 2.523156106472015381e-01 5.199339613318443298e-02
6.118727326393127441e-01 -2.365238368511199951e-01 5.735448561608791351e-03
4.218833893537521362e-02 -2.784300148487091064e-01 -5.486857891082763672e-02
6.095851659774780273e-01 1.990453749895095825e-01 -7.414928637444972992e-03
2.791501209139823914e-02 -3.668254986405372620e-02 8.382899314165115356e-02
5.443318486213684082e-01 1.831541806459426880e-01 3.107152879238128662e-02
8.643075078725814819e-02 -2.954914271831512451e-01 4.451468586921691895e-02
6.716783046722412109e-01 -7.014086842536926270e-02 -5.182767659425735474e-02
-2.344966679811477661e-01 -3.195505216717720032e-02 8.210148662328720093e-02
3.302526175975799561e-01 -1.048066169023513794e-01 7.075980305671691895e-02
-2.030553519725799561e-01 -1.631971895694732666e-01 -7.207027077674865723e-02
-7.267869114875793457e-01 -1.297066807746887207e-01 5.311943590641021729e-03
-4.246875047683715820e-01 -2.710540890693664551e-01 -2.341502532362937927e-02
-2.223834544420242310e-01 1.229507699608802795e-01 -7.376733422279357910e-02
-2.232147306203842163e-01 2.520294785499572754e-01 -4.810127615928649902e-02
-2.768092155456542969e-01 3.508120030164718628e-02 8.056823164224624634e-02
5.630905628204345703e-01 -6.265322864055633545e-02 -6.580608338117599487e-02
1.195446252822875977e-01 -3.373675942420959473e-01 -2.588337473571300507e-02
-1.056472659111022949e-01 -2.615940570831298828e-01 -5.664130300283432007e-02
7.084221839904785156e-01 1.331976205110549927e-01 -9.617091855034232140e-04
-3.305443525314331055e-01 -1.992023363709449768e-02 7.906590402126312256e-02
-4.294634461402893066e-01 3.362013958394527435e-03 -6.864386796951293945e-02
3.611701130867004395e-01 1.272606104612350464e-01 -7.093141973018646240e-02
7.499393820762634277e-02 2.699879109859466553e-01 4.598705470561981201e-02
-6.264808773994445801e-02 3.241523206233978271e-01 1.473403535783290863e-02
4.621575474739074707e-01 -1.448549181222915649e-01 5.719469115138053894e-02
3.678273260593414307e-01 8.189375698566436768e-02 -7.568569481372833252e-02
-2.823520600795745850e-01 -1.223259568214416504e-01 -7.280120998620986938e-02
-2.279245406389236450e-01 7.078991830348968506e-02 8.032930642366409302e-02
4.504540264606475830e-01 -9.362365305423736572e-02 -7.320687174797058105e-02
-1.551131010055541992e-01 4.505731910467147827e-02 -8.204022794961929321e-02
2.389363050460815430e-01 -7.841784507036209106e-02 7.690621167421340942e-02
-6.166287064552307129e-01 -1.368710678070783615e-02 -4.860313609242439270e-02
-7.857853919267654419e-02 -2.324631959199905396e-01 6.321419030427932739e-02
6.601853966712951660e-01 -1.713450402021408081e-01 2.397211268544197083e-02
4.299352765083312988e-01 2.393792569637298584e-01 -3.605983406305313110e-02
-2.259199768304824829e-01 1.144308671355247498e-01 -7.453045248985290527e-02
-4.359656572341918945e-01 3.853390365839004517e-02 -6.729105114936828613e-02
-7.257259488105773926e-01 -9.144609421491622925e-02 2.868963778018951416e-02
-8.678916841745376587e-02 -3.466373682022094727e-01 -8.225442841649055481e-03
7.944199442863464355e-01 1.129133533686399460e-02 -1.176786329597234726e-02
-4.416839480400085449e-01 -3.593334183096885681e-02 -6.728600710630416870e-02
7.830459475517272949e-01 1.178850140422582626e-02 7.233127951622009277e-03
2.398091256618499756e-01 1.368725150823593140e-01 6.933582574129104614e-02
-2.902559340000152588e-01 1.121287792921066284e-01 -7.170272618532180786e-02
1.971087604761123657e-01 2.753022909164428711e-01 -4.182210937142372131e-02
3.976572155952453613e-01 -2.725615501403808594e-01 -4.296274483203887939e-02
-1.411673873662948608e-01 6.842029094696044922e-02 8.200667798519134521e-02
6.203560829162597656e-01 1.886236071586608887e-01 5.456755869090557098e-03
-2.358207292854785919e-02 -3.118645250797271729e-01 -4.113172739744186401e-02
-3.093460500240325928e-01 -3.275102004408836365e-02 -7.642559707164764404e-02
-1.992945745587348938e-02 -3.445909917354583740e-01 1.532164588570594788e-02
3.882540762424468994e-01 2.761358618736267090e-01 -1.620749756693840027e-02
4.784016013145446777e-01 -2.152146399021148682e-02 6.350882351398468018e-02
2.376051843166351318e-01 -6.817614287137985229e-02 -8.368110656738281250e-02
-4.861882328987121582e-02 -5.502253770828247070e-06 8.457661420106887817e-02
-1.381937563419342041e-01 1.762417107820510864e-01 7.053501904010772705e-02
6.839582324028015137e-01 -5.455684289336204529e-02 3.681293502449989319e-02
3.804363012313842773e-01 2.817748188972473145e-01 -7.978193461894989014e-03
-3.980008363723754883e-01 -2.640016973018646240e-01 3.599123284220695496e-02
-1.734250783920288086e-01 -2.997736036777496338e-01 -3.970055654644966125e-02
-5.299870371818542480e-01 1.255588233470916748e-01 5.812390893697738647e-02
5.517008900642395020e-01 2.103814855217933655e-02 5.545860901474952698e-02
3.520704805850982666e-02 -4.858212918043136597e-02 8.344952017068862915e-02
-7.076698541641235352e-01 1.066989377140998840e-01 3.187291696667671204e-02
-7.479948997497558594e-01 -6.506844609975814819e-02 -1.559526380151510239e-02
-2.388396561145782471e-01 -2.593291401863098145e-01 -5.034731328487396240e-02
-6.775191426277160645e-02 -2.815093696117401123e-01 4.999562352895736694e-02
-2.699835896492004395e-01 -1.591715365648269653e-01 -6.925093382596969604e-02
4.030635952949523926e-01 1.365353763103485107e-01 -6.701845675706863403e-02
-5.778651684522628784e-04 2.898986041545867920e-01 -4.023421555757522583e-02
2.865554690361022949e-01 1.640425771474838257e-01 6.272809207439422607e-02
-2.440845519304275513e-01 1.914450824260711670e-01 -6.246365606784820557e-02
6.774616837501525879e-01 -1.895418614149093628e-01 1.123388856649398804e-02
3.363676369190216064e-01 6.839413195848464966e-02 -7.828150689601898193e-02
7.800430804491043091e-02 -2.668539881706237793e-01 5.411392450332641602e-02
-6.917468309402465820e-01 -1.079633459448814392e-01 -2.553123608231544495e-02
-2.953781187534332275e-01 -2.827407121658325195e-01 3.877629712224006653e-02
4.122102558612823486e-01 1.011349782347679138e-01 6.263400614261627197e-02
-3.238362669944763184e-01 1.301784962415695190e-01 7.187800109386444092e-02
-1.282218545675277710e-01 -3.149200081825256348e-01 -3.506641462445259094e-02
5.548638850450515747e-02 2.505253553390502930e-01 5.309414118528366089e-02
2.004430741071701050e-01 -5.742029845714569092e-02 7.928067445755004883e-02
-6.895886063575744629e-01 1.715659722685813904e-02 -3.603347018361091614e-02
7.568987607955932617e-01 7.897334545850753784e-02 2.384698716923594475e-03
-2.634791433811187744e-01 -1.946972012519836426e-01 -6.407331675291061401e-02
6.504257917404174805e-01 1.397874951362609863e-01 2.247387915849685669e-02
1.332212984561920166e-01 4.916387610137462616e-03 -8.620601147413253784e-02
-7.412480115890502930e-01 1.363455224782228470e-02 -2.337328717112541199e-02
3.390527665615081787e-01 -8.948297053575515747e-02 7.130537927150726318e-02
3.709582984447479248e-01 1.661617904901504517e-01 -6.395606696605682373e-02
