-3.666561245918273926e-01 -8.616086840629577637e-02 -1.071652621030807495e-01
-1.498831808567047119e-02 -1.875813752412796021e-01 1.461894717067480087e-03
-3.877543509006500244e-01 3.252729400992393494e-02 1.268156170845031738e-01
-1.194692850112915039e-01 -1.167112365365028381e-01 1.353628933429718018e-01
-3.592273294925689697e-01 6.201707571744918823e-02 1.260327696800231934e-01
1.148524284362792969e-01 -1.240552365779876709e-01 1.304962337017059326e-01
-4.538285732269287109e-02 1.247776746749877930e-01 -1.251962035894393921e-01
1.980665326118469238e-01 1.485926061868667603e-01 8.366424590349197388e-02
4.741114377975463867e-01 -3.720688074827194214e-02 8.588898926973342896e-02
3.945062458515167236e-01 -1.143365427851676941e-01 -7.132298499345779419e-02
-4.207442402839660645e-01 8.993038535118103027e-02 -6.790031492710113525e-02
8.426412940025329590e-02 -7.599496841430664062e-02 1.646734327077865601e-01
-1.795994043350219727e-01 -1.147801652550697327e-01 1.292482912540435791e-01
1.033835709095001221e-01 1.379731446504592896e-01 1.174339056015014648e-01
3.377180695533752441e-01 -7.185976207256317139e-02 -1.304578483104705811e-01
-2.413499653339385986e-01 -1.489087343215942383e-01 -7.882210612297058105e-02
7.765386719256639481e-03 1.049287095665931702e-01 1.528940796852111816e-01
-1.129562854766845703e-01 -1.196159943938255310e-01 1.335032880306243896e-01
-5.061727166175842285e-01 5.712243914604187012e-02 -3.156716376543045044e-02
-2.403049319982528687e-01 1.607812196016311646e-01 3.479068726301193237e-02
-2.027105838060379028e-01 1.364130675792694092e-01 1.054662540555000305e-01
2.753536701202392578e-01 6.158022582530975342e-02 -1.411086171865463257e-01
-2.776958644390106201e-01 -1.205752268433570862e-01 1.015088409185409546e-01
5.125375390052795410e-01 5.633303150534629822e-02 2.017648518085479736e-02
-1.970387548208236694e-01 -9.785501658916473389e-02 -1.438397169113159180e-01
-4.793044626712799072e-01 7.631649821996688843e-02 -3.634869679808616638e-02
-3.206943348050117493e-02 -6.125224009156227112e-02 1.725403815507888794e-01
2.535095512866973877e-01 8.861169219017028809e-02 -1.294070482254028320e-01
3.562220633029937744e-01 1.342656314373016357e-01 -4.708098713308572769e-03
-1.899596303701400757e-01 -1.299079209566116333e-01 1.124464347958564758e-01
5.695895524695515633e-04 9.608093649148941040e-02 1.586501151323318481e-01
-2.071648538112640381e-01 -1.726445704698562622e-01 -5.218416452407836914e-03
-1.730663329362869263e-01 -1.525429040193557739e-01 -9.285731613636016846e-02
-3.284289240837097168e-01 3.119292668998241425e-02 1.449577361345291138e-01
-5.686904117465019226e-02 -9.225594997406005859e-02 -1.612237393856048584e-01
-4.008784890174865723e-01 1.225475221872329712e-01 -8.434774354100227356e-03
2.366093993186950684e-01 -1.173415966331958771e-02 -1.648856252431869507e-01
-1.873238086700439453e-01 5.131278652697801590e-03 -1.700879782438278198e-01
-8.693427592515945435e-02 -3.017178736627101898e-02 1.789070963859558105e-01
6.014270707964897156e-02 -1.209403872489929199e-01 1.369161158800125122e-01
4.551702737808227539e-01 7.711090892553329468e-02 -5.668445676565170288e-02
-6.911230832338333130e-02 1.773757785558700562e-01 3.609542176127433777e-02
-9.616013616323471069e-03 -1.773013770580291748e-01 -6.603952497243881226e-02
-2.550972104072570801e-01 -1.375104188919067383e-01 -9.286779910326004028e-02
1.247898861765861511e-01 -1.771337091922760010e-01 4.317725449800491333e-02
1.736971735954284668e-01 -8.636144548654556274e-02 1.515166908502578735e-01
1.143961623311042786e-01 -1.542238742113113403e-01 9.505253285169601440e-02
2.218598425388336182e-01 -8.893763273954391479e-02 -1.477009356021881104e-01
-6.810761988162994385e-02 -5.671118572354316711e-02 1.729158312082290649e-01
1.950411200523376465e-01 -1.706748902797698975e-01 4.121488705277442932e-02
1.839880645275115967e-02 -7.525287568569183350e-02 -1.702597886323928833e-01
-3.217212855815887451e-02 -1.065722852945327759e-01 -1.539332270622253418e-01
-2.775885462760925293e-01 -7.608178257942199707e-02 -1.402304023504257202e-01
3.199710510671138763e-03 8.535832166671752930e-03 1.842040568590164185e-01
2.535077631473541260e-01 1.492599695920944214e-01 -4.801354184746742249e-02
4.965142607688903809e-01 -7.681590318679809570e-02 3.160416334867477417e-02
2.778943479061126709e-01 1.537639945745468140e-01 1.225668285042047501e-02
-1.705556958913803101e-01 1.718406528234481812e-01 -6.385937798768281937e-03
-3.399286568164825439e-01 5.236923322081565857e-02 -1.290012598037719727e-01
-1.426474750041961670e-01 -1.207466796040534973e-01 1.291578859090805054e-01
1.040379628539085388e-01 -1.625732183456420898e-01 8.239732682704925537e-02
2.146578282117843628e-01 -1.745887994766235352e-01 -4.937427584081888199e-03
-4.742607474327087402e-01 -7.399633526802062988e-02 5.188657715916633606e-02
1.508602052927017212e-01 -5.655749514698982239e-02 1.673408448696136475e-01
3.158420622348785400e-01 7.985556125640869141e-02 -1.201455965638160706e-01
2.206811122596263885e-02 -1.270573735237121582e-01 -1.393262296915054321e-01
1.740818321704864502e-01 1.068815216422080994e-01 1.386362016201019287e-01
1.503048464655876160e-02 -4.614163562655448914e-02 1.776535212993621826e-01
-5.283982753753662109e-01 3.634162619709968567e-02 -2.157533541321754456e-02
3.430152237415313721e-01 1.373086571693420410e-01 -1.202009432017803192e-02
-4.645790532231330872e-02 -6.274783611297607422e-02 1.715959161520004272e-01
1.011903434991836548e-01 1.063661947846412659e-01 1.475207954645156860e-01
2.686831951141357422e-01 5.340494960546493530e-02 -1.462416201829910278e-01
-2.961108386516571045e-01 5.377012491226196289e-02 -1.397927105426788330e-01
1.952329576015472412e-01 1.613627523183822632e-01 5.259126424789428711e-02
-3.740651607513427734e-01 -1.091909110546112061e-01 7.645431160926818848e-02
-2.644138932228088379e-01 -1.523533761501312256e-01 -6.096234917640686035e-02
1.319411844015121460e-01 -1.828813701868057251e-01 7.490966934710741043e-03
2.671228051185607910e-01 -1.036347895860671997e-01 1.237739995121955872e-01
-4.948144257068634033e-01 3.028184175491333008e-03 -7.426036894321441650e-02
2.109596878290176392e-01 -1.749238520860671997e-01 2.096108626574277878e-03
-3.677123188972473145e-01 -1.368127316236495972e-01 -1.262691617012023926e-02
1.934374682605266571e-02 4.768439382314682007e-02 1.786163002252578735e-01
-3.954306244850158691e-01 -4.325802996754646301e-02 -1.184122860431671143e-01
1.383790820837020874e-01 -1.758998036384582520e-01 -5.432685464620590210e-02
1.343895792961120605e-01 1.077223345637321472e-01 -1.337350904941558838e-01
-6.593701243400573730e-02 1.407499015331268311e-01 1.184244155883789062e-01
-3.259896636009216309e-01 -1.480932533740997314e-01 1.337704248726367950e-02
4.464927613735198975e-01 9.052398055791854858e-02 4.933537542819976807e-02
-4.498647451400756836e-01 -1.037586480379104614e-01 -1.484049204736948013e-02
-1.463212817907333374e-01 1.726232916116714478e-01 3.476695716381072998e-02
-3.869849741458892822e-01 -1.151438876986503601e-01 -6.362818181514739990e-02
1.976344734430313110e-01 1.195633411407470703e-01 1.233578473329544067e-01
-1.321460753679275513e-01 1.478823870420455933e-01 -8.898316323757171631e-02
-3.081806004047393799e-01 1.497674435377120972e-01 -2.721505705267190933e-03
9.643419086933135986e-02 9.924924373626708984e-02 -1.438096910715103149e-01
-4.892637133598327637e-01 7.305829972028732300e-02 -2.838058769702911377e-02
-2.909753322601318359e-01 1.339724510908126831e-01 -6.925087422132492065e-02
1.605861634016036987e-01 -6.110287830233573914e-02 -1.672628521919250488e-01
3.458874523639678955e-01 1.199524849653244019e-01 -6.354695558547973633e-02
3.267396390438079834e-01 1.553185284137725830e-03 -1.463783830404281616e-01
2.934450507164001465e-01 1.155125051736831665e-01 -9.311069548130035400e-02
4.472015798091888428e-01 -1.071296632289886475e-01 -3.780003264546394348e-02
3.912038207054138184e-01 -3.532429784536361694e-02 -1.257874369621276855e-01
9.516831487417221069e-02 6.864322721958160400e-02 -1.619462221860885620e-01
8.248644322156906128e-02 1.699656397104263306e-01 -4.709817841649055481e-02
2.706048488616943359e-01 -1.259769052267074585e-01 1.012081950902938843e-01
-7.114142924547195435e-02 1.770885661244392395e-02 1.822114288806915283e-01
2.491580508649349213e-02 1.411854028701782227e-01 1.190961226820945740e-01
-3.999316096305847168e-01 3.119504638016223907e-02 1.227201595902442932e-01
3.550938069820404053e-01 -1.920635998249053955e-02 1.389791816473007202e-01
-3.755826056003570557e-01 5.946438014507293701e-02 -1.140701323747634888e-01
4.172106832265853882e-02 9.508431702852249146e-02 1.584514677524566650e-01
3.934446871280670166e-01 -8.143018186092376709e-02 1.009563133120536804e-01
-2.083964496850967407e-01 -1.867450587451457977e-02 -1.675057113170623779e-01
6.127159669995307922e-02 -1.870911419391632080e-01 -7.218248210847377777e-04
-9.396126493811607361e-03 7.204899936914443970e-02 1.707427054643630981e-01
4.206651449203491211e-01 2.502222731709480286e-02 -1.120736524462699890e-01
-4.210174381732940674e-01 9.385211393237113953e-03 1.176141649484634399e-01
-4.146725833415985107e-01 -1.184499114751815796e-01 -2.374776080250740051e-02
-1.201275661587715149e-01 3.650860488414764404e-02 -1.716158092021942139e-01
2.272269725799560547e-01 -1.267979741096496582e-01 -1.184369027614593506e-01
-4.180708825588226318e-01 -2.841080538928508759e-02 1.147405207157135010e-01
-1.511111408472061157e-01 -1.042364537715911865e-01 -1.463297456502914429e-01
1.796533465385437012e-01 -1.319163888692855835e-01 -1.221020370721817017e-01
-8.802480995655059814e-03 -1.480547785758972168e-01 -1.177044063806533813e-01
-3.219446837902069092e-01 1.178807243704795837e-01 9.333757311105728149e-02
4.028488323092460632e-02 8.328835666179656982e-02 1.649566292762756348e-01
-2.795515358448028564e-01 -1.131590455770492554e-01 1.090249866247177124e-01
-9.557531028985977173e-02 -1.683924496173858643e-01 6.927972286939620972e-02
-4.346420168876647949e-01 7.562376558780670166e-02 -7.519631832838058472e-02
7.791646569967269897e-02 -1.603331118822097778e-01 8.899588137865066528e-02
3.249363899230957031e-01 -1.162198409438133240e-01 9.502649307250976562e-02
-4.399252533912658691e-01 1.072367429733276367e-01 -2.279317006468772888e-03
4.534330368041992188e-01 5.751061718910932541e-03 1.030198559165000916e-01
1.490522772073745728e-01 5.915036797523498535e-02 1.676953732967376709e-01
-8.516646176576614380e-02 1.785498112440109253e-01 -4.503204487264156342e-03
2.174688130617141724e-01 -4.054512828588485718e-04 1.690268814563751221e-01
-3.415402472019195557e-01 -1.406945884227752686e-01 3.095672279596328735e-02
1.537626981735229492e-01 -9.168608486652374268e-02 -1.554541140794754028e-01
-3.128480613231658936e-01 1.222007870674133301e-01 9.117232263088226318e-02
3.130013495683670044e-02 1.352453976869583130e-01 1.258147060871124268e-01
-2.521245777606964111e-01 -1.570436656475067139e-01 -5.490741506218910217e-02
-2.700612545013427734e-01 -5.414222180843353271e-02 1.497918516397476196e-01
3.636984229087829590e-01 -1.217049360275268555e-01 -7.814885675907135010e-02
4.503748118877410889e-01 -6.787141412496566772e-02 8.275982737541198730e-02
-7.482600212097167969e-02 -1.754507124423980713e-01 5.473363399505615234e-02
2.408836185932159424e-01 -1.701037436723709106e-01 -1.946275681257247925e-02
-1.312293410301208496e-01 2.442984096705913544e-02 -1.733980774879455566e-01
-1.543766558170318604e-01 -8.580736070871353149e-02 1.531736850738525391e-01
1.512934267520904541e-01 9.548170119524002075e-02 1.498274505138397217e-01
-1.785790026187896729e-01 8.407376706600189209e-02 -1.456128060817718506e-01
7.111367583274841309e-02 -8.211827278137207031e-02 -1.661419570446014404e-01
1.364743709564208984e-01 4.526158049702644348e-02 -1.680042743682861328e-01
-2.673982679843902588e-01 2.191724255681037903e-02 1.599183231592178345e-01
1.667750477790832520e-01 -1.796947270631790161e-01 8.621615357697010040e-03
-3.205676972866058350e-01 -1.228514015674591064e-01 -8.856111764907836914e-02
5.247909426689147949e-01 -1.851901970803737640e-02 -5.189354345202445984e-02
7.738550752401351929e-02 1.399138420820236206e-01 1.176006868481636047e-01
2.350388616323471069e-01 -1.167318448424339294e-01 1.195096448063850403e-01
3.021267950534820557e-01 9.670647233724594116e-02 -1.104875877499580383e-01
-2.870585620403289795e-01 1.490987092256546021e-01 -3.410972654819488525e-02
5.412103533744812012e-01 -5.260186269879341125e-03 -2.879241108894348145e-02
-3.781762123107910156e-01 -5.412306636571884155e-02 1.204657629132270813e-01
1.109842732548713684e-01 -1.132265031337738037e-01 1.400480419397354126e-01
4.471454322338104248e-01 6.557365506887435913e-02 8.133114129304885864e-02
1.593206822872161865e-02 -1.873527467250823975e-01 -1.991542056202888489e-02
-1.388695538043975830e-01 2.847439981997013092e-02 -1.719124317169189453e-01
4.345741122961044312e-02 -1.404714137315750122e-01 1.182178258895874023e-01
-5.242085456848144531e-01 4.931993409991264343e-02 4.590325523167848587e-03
1.665876060724258423e-01 1.528718918561935425e-01 -7.141097635030746460e-02
1.613935232162475586e-01 1.357215791940689087e-01 -1.004927232861518860e-01
4.239879548549652100e-02 -3.072374872863292694e-02 1.806734502315521240e-01
3.419486880302429199e-01 3.522021695971488953e-03 -1.422985345125198364e-01
-4.706551507115364075e-02 1.380274742841720581e-01 -1.104154065251350403e-01
1.051333397626876831e-01 1.679439991712570190e-01 -4.880988970398902893e-02
-3.236241172999143600e-04 -1.859368085861206055e-01 -3.202452138066291809e-02
-9.310959279537200928e-02 1.777340769767761230e-01 -9.530189447104930878e-03
-1.383678913116455078e-01 -1.796549260616302490e-01 -2.592278271913528442e-02
1.669071316719055176e-01 -1.633701473474502563e-01 6.977815926074981689e-02
-7.577452063560485840e-02 -1.482574492692947388e-01 1.058606803417205811e-01
8.692894876003265381e-02 1.739820539951324463e-01 4.513461515307426453e-02
3.281576931476593018e-01 1.370519101619720459e-01 -3.347266092896461487e-02
-3.320768177509307861e-01 1.095746010541915894e-01 9.942957013845443726e-02
2.900049388408660889e-01 -4.166933149099349976e-02 -1.521176248788833618e-01
-5.212531089782714844e-01 5.196413770318031311e-02 -5.246007815003395081e-03
-1.179637759923934937e-01 6.355924159288406372e-02 -1.625310778617858887e-01
4.986093938350677490e-01 -6.558186560869216919e-02 -5.046288669109344482e-02
-8.033899962902069092e-02 -9.383422136306762695e-02 1.549604386091232300e-01
-3.650777339935302734e-01 -1.318004131317138672e-01 -4.333332180976867676e-02
-3.848800435662269592e-02 -5.951714888215065002e-02 1.730076372623443604e-01
6.587640941143035889e-02 2.110320329666137695e-02 1.819776892662048340e-01
2.761837542057037354e-01 -1.505089551210403442e-01 -6.968273222446441650e-02
2.778671085834503174e-01 -1.581430882215499878e-01 3.853068873286247253e-02
-4.209478497505187988e-01 9.493250399827957153e-02 7.117921859025955200e-02
-5.808395519852638245e-02 8.780040591955184937e-02 -1.537002027034759521e-01
-1.174814030528068542e-01 1.678120195865631104e-01 6.379677355289459229e-02
1.961315125226974487e-01 1.652703136205673218e-01 3.465637564659118652e-02
1.616396605968475342e-01 1.257822215557098389e-01 -1.126444786787033081e-01
-1.211216598749160767e-01 -8.386009186506271362e-02 1.576212346553802490e-01
2.206660062074661255e-01 -1.551158130168914795e-01 7.194209843873977661e-02
-3.634376227855682373e-01 -7.281966507434844971e-02 -1.171721816062927246e-01
1.115157455205917358e-02 -1.807282418012619019e-01 4.540349915623664856e-02
5.267215967178344727e-01 -4.301571100950241089e-02 -3.678457066416740417e-02
1.922234594821929932e-01 -1.715184301137924194e-01 -4.988057166337966919e-02
2.690821588039398193e-01 -1.566119045019149780e-01 4.871911928057670593e-02
5.335865076631307602e-03 -9.817880392074584961e-02 1.548527926206588745e-01
-4.093152284622192383e-01 -7.533530890941619873e-02 -9.638793766498565674e-02
-1.671853289008140564e-02 -8.701632916927337646e-02 1.612229049205780029e-01
1.476560235023498535e-01 1.720752269029617310e-01 2.716535702347755432e-02
5.001451969146728516e-01 -1.260659843683242798e-02 -7.485041022300720215e-02
-1.286617964506149292e-01 1.747166514396667480e-01 -1.557631138712167740e-02
-9.688982367515563965e-02 -1.649467051029205322e-01 -8.552278578281402588e-02
6.596060097217559814e-02 3.544311225414276123e-02 1.799335926771163940e-01
1.140438616275787354e-01 1.697912961244583130e-01 5.431333929300308228e-02
1.703524887561798096e-01 1.268102079629898071e-01 1.207857206463813782e-01
4.949667453765869141e-01 -1.042014360427856445e-02 -7.866574823856353760e-02
2.767687439918518066e-01 -1.201791316270828247e-02 -1.578360199928283691e-01
3.670746386051177979e-01 -2.015387825667858124e-02 -1.355727165937423706e-01
-2.204701602458953857e-01 8.219245076179504395e-02 -1.404031366109848022e-01
1.487563252449035645e-01 1.189427077770233154e-01 1.319995522499084473e-01
-7.389035820960998535e-02 -7.147065550088882446e-02 -1.694961786270141602e-01
-1.873000562191009521e-01 1.028591245412826538e-01 1.413825750350952148e-01
8.335714787244796753e-02 1.146323308348655701e-01 1.425461620092391968e-01
9.037946909666061401e-02 -3.102372586727142334e-02 1.786502003669738770e-01
3.459708094596862793e-01 1.252961158752441406e-01 6.267908215522766113e-02
-4.489354193210601807e-01 -8.976419456303119659e-03 1.046655252575874329e-01
3.328700959682464600e-01 5.212932825088500977e-02 1.364523917436599731e-01
-3.076170682907104492e-01 2.954876981675624847e-02 -1.450895667076110840e-01
-3.545847833156585693e-01 -4.095041658729314804e-04 -1.371775567531585693e-01
-1.813282817602157593e-01 8.909767866134643555e-02 -1.420830786228179932e-01
2.792665362358093262e-01 1.481383293867111206e-01 4.699478670954704285e-02
-4.050329625606536865e-01 7.082138210535049438e-02 -9.490566700696945190e-02
-4.987644255161285400e-01 3.686971217393875122e-02 6.639912724494934082e-02
-8.800482749938964844e-02 -1.648630499839782715e-01 -8.695241808891296387e-02
3.124510347843170166e-01 -7.925397902727127075e-02 1.294463574886322021e-01
4.273350536823272705e-01 -9.410927444696426392e-02 7.159803062677383423e-02
3.266326710581779480e-02 1.641694456338882446e-01 8.180101960897445679e-02
-3.326515853404998779e-01 -1.021078526973724365e-01 1.028817072510719299e-01
4.393925368785858154e-01 5.970722436904907227e-02 9.057960659265518188e-02
3.136992156505584717e-01 -1.567413061857223511e-01 -5.901226308196783066e-03
1.125952601432800293e-01 9.569001942873001099e-02 -1.450407952070236206e-01
-4.029333591461181641e-01 -4.857989773154258728e-02 1.136577352881431580e-01
-9.362735599279403687e-02 6.226737797260284424e-02 -1.648200154304504395e-01
3.362386226654052734e-01 -6.649605184793472290e-02 -1.332815736532211304e-01
-3.526394367218017578e-01 5.487793684005737305e-02 -1.240512654185295105e-01
-7.680938392877578735e-02 1.791927516460418701e-01 1.486446242779493332e-02
-1.240074187517166138e-01 -9.039208292961120605e-02 1.536750793457031250e-01
4.110142290592193604e-01 5.890851840376853943e-02 -1.001977249979972839e-01
-1.754356324672698975e-01 9.350931644439697266e-02 1.493371278047561646e-01
4.908919930458068848e-01 -6.640077382326126099e-02 5.380443483591079712e-02
-3.663507401943206787e-01 -1.273855566978454590e-01 4.852591827511787415e-02
-4.888041689991950989e-02 -1.073009520769119263e-01 1.476524919271469116e-01
-4.047155380249023438e-01 -1.215860620141029358e-01 -2.811748161911964417e-02
4.878642857074737549e-01 -3.235273063182830811e-02 -8.027775585651397705e-02
1.720853298902511597e-01 6.592439860105514526e-02 1.625405400991439819e-01
5.031462311744689941e-01 6.661338359117507935e-02 -8.126874454319477081e-04
1.706692576408386230e-01 -1.357716321945190430e-01 -1.194564849138259888e-01
-4.301512613892555237e-02 -1.199761405587196350e-01 1.379529684782028198e-01
-3.192663490772247314e-01 -1.300412714481353760e-01 7.242759317159652710e-02
-2.733313441276550293e-01 1.490311175584793091e-01 -4.361310601234436035e-02
-2.123444825410842896e-01 -5.336509272456169128e-02 1.602447479963302612e-01
-1.656881123781204224e-01 1.238424926996231079e-01 1.266890615224838257e-01
-4.680697321891784668e-01 -8.577175438404083252e-02 -4.118888452649116516e-02
-4.920607209205627441e-01 5.623458698391914368e-02 5.806813761591911316e-02
-1.013733148574829102e-01 5.188938695937395096e-03 1.811591535806655884e-01
-1.885000616312026978e-01 -1.747373193502426147e-01 -1.771954447031021118e-02
9.737548232078552246e-02 1.533076167106628418e-01 9.617374837398529053e-02
-1.756427139043807983e-01 1.370925158262252808e-01 -9.754212200641632080e-02
3.023033440113067627e-01 -3.542893007397651672e-02 -1.505893915891647339e-01
4.108762741088867188e-01 -1.182320192456245422e-01 -5.158220231533050537e-02
-5.024068355560302734e-01 4.875887930393218994e-02 5.428469926118850708e-02
-2.225779555737972260e-02 -1.291775889694690704e-02 1.834560334682464600e-01
-3.832429647445678711e-01 -1.293665766716003418e-01 2.330210059881210327e-02
5.211342573165893555e-01 -6.345511972904205322e-02 -8.245216682553291321e-03
1.037704572081565857e-01 1.769255399703979492e-01 4.319428000599145889e-03
-3.092873394489288330e-01 -3.627450764179229736e-02 -1.462963968515396118e-01
1.781745851039886475e-01 -2.757093496620655060e-02 -1.719623208045959473e-01
1.230483315885066986e-02 1.775746792554855347e-01 4.096700251102447510e-02
-4.636062681674957275e-01 5.214478820562362671e-02 -7.653565704822540283e-02
-7.382430136203765869e-02 -1.855998635292053223e-01 -1.065969374030828476e-02
-1.711097173392772675e-02 1.095652356743812561e-01 1.496164947748184204e-01
-4.390207529067993164e-01 4.024565964937210083e-02 -9.693902730941772461e-02
2.521948218345642090e-01 7.834768295288085938e-02 -1.366059929132461548e-01
3.531161323189735413e-02 1.065957993268966675e-01 -1.414451450109481812e-01
-2.662263810634613037e-01 -1.156302317976951599e-01 -1.153536736965179443e-01
5.464116930961608887e-01 -1.502804085612297058e-02 -1.196397002786397934e-02
-1.339618116617202759e-01 -1.811058223247528076e-01 3.493765601888298988e-03
5.098916292190551758e-01 4.870210215449333191e-02 4.098730906844139099e-02
-5.051605701446533203e-01 -6.411203742027282715e-02 -2.626368030905723572e-02
-2.684671282768249512e-01 1.393241584300994873e-01 8.152452111244201660e-02
2.327044457197189331e-01 9.801477938890457153e-02 1.350089609622955322e-01
-2.375747561454772949e-01 1.502234339714050293e-01 7.154424488544464111e-02
4.250439107418060303e-01 -1.180421859025955200e-01 -3.578524291515350342e-02
2.141289860010147095e-01 -7.147312909364700317e-02 1.535071134567260742e-01
3.838626742362976074e-01 -5.455639213323593140e-03 1.312857866287231445e-01
4.661429226398468018e-01 8.907172828912734985e-02 -1.458127330988645554e-02
-4.661440253257751465e-01 7.445359230041503906e-02 6.229950487613677979e-02
-1.806976646184921265e-01 1.678853780031204224e-01 -2.662438154220581055e-02
5.299751758575439453e-01 2.618090622127056122e-02 -3.222297504544258118e-02
-4.003383219242095947e-04 -1.871185004711151123e-01 1.120229344815015793e-02
4.103607237339019775e-01 1.085688844323158264e-01 -3.844076395034790039e-02
-1.946644484996795654e-01 1.008410379290580750e-01 -1.317216455936431885e-01
-2.763253450393676758e-02 -1.479170322418212891e-01 1.091977432370185852e-01
1.810320094227790833e-02 -1.781838536262512207e-01 5.350492894649505615e-02
5.202847719192504883e-01 -5.817963182926177979e-02 -2.822768688201904297e-02
2.716768980026245117e-01 1.379915475845336914e-01 7.726503908634185791e-02
-2.065649926662445068e-01 8.240349590778350830e-02 1.512715518474578857e-01
4.259262382984161377e-01 6.409961264580488205e-03 -1.140545383095741272e-01
-8.236858993768692017e-04 1.275712102651596069e-01 1.344128847122192383e-01
3.476660251617431641e-01 1.294889748096466064e-01 5.086725205183029175e-02
-4.275166988372802734e-01 -6.045051664113998413e-02 -9.703117609024047852e-02
4.029295444488525391e-01 -1.310628950595855713e-01 -5.252508446574211121e-03
2.215174585580825806e-01 1.176338568329811096e-01 -1.104079410433769226e-01
3.188620880246162415e-02 1.727246791124343872e-01 5.924786627292633057e-02
-4.030342996120452881e-01 5.036034807562828064e-02 -1.083147302269935608e-01
1.178117543458938599e-01 -1.095994487404823303e-01 -1.481119543313980103e-01
-2.292655706405639648e-01 -1.562001854181289673e-01 -6.833151727914810181e-02
3.426140844821929932e-01 -7.196889072656631470e-02 1.251136213541030884e-01
-3.987722694873809814e-01 -5.156777799129486084e-02 -1.141458153724670410e-01
8.786606602370738983e-03 -9.024803340435028076e-02 -1.637349128723144531e-01
-1.107422262430191040e-01 1.228800415992736816e-01 1.341445595026016235e-01
1.920455396175384521e-01 1.537389010190963745e-01 7.488425076007843018e-02
2.561376690864562988e-01 5.614800378680229187e-02 -1.475286781787872314e-01
3.683889806270599365e-01 -8.944743126630783081e-02 -1.099254265427589417e-01
3.358956575393676758e-01 1.242938935756683350e-01 7.108072936534881592e-02
1.298930346965789795e-01 8.956058323383331299e-02 -1.475702822208404541e-01
4.093534350395202637e-01 -6.140170991420745850e-02 -1.104792132973670959e-01
2.118933796882629395e-01 -1.748787313699722290e-01 -1.075194776058197021e-02
3.448004126548767090e-01 8.743304759263992310e-02 -1.048328131437301636e-01
3.033737540245056152e-01 -1.085520759224891663e-01 -1.163413599133491516e-01
2.457670867443084717e-01 -1.108633354306221008e-01 1.225146576762199402e-01
1.444707661867141724e-01 1.304917633533477783e-01 -1.097842827439308167e-01
-2.070456445217132568e-01 1.150425672531127930e-01 1.281916648149490356e-01
-3.365440964698791504e-01 1.406775861978530884e-01 -2.002482861280441284e-02
-2.177958004176616669e-02 3.956653550267219543e-02 -1.753821820020675659e-01
-4.224453270435333252e-01 -6.604927778244018555e-02 9.505231678485870361e-02
-2.274694442749023438e-01 -1.294581741094589233e-01 1.048336029052734375e-01
3.313600644469261169e-02 8.965409547090530396e-02 -1.533173024654388428e-01
8.088816702365875244e-02 -2.063939347863197327e-02 1.807667315006256104e-01
2.248033583164215088e-01 -9.044112265110015869e-02 1.415772885084152222e-01
-2.207200080156326294e-01 -8.001887053251266479e-02 1.469904035329818726e-01
2.531127445399761200e-02 1.733196675777435303e-01 -4.330882430076599121e-02
2.527757585048675537e-01 -1.136114895343780518e-01 -1.250541508197784424e-01
3.458476662635803223e-01 -9.022518992424011230e-02 1.121863275766372681e-01
1.865773648023605347e-01 1.662265360355377197e-01 -2.303226664662361145e-02
-1.199044138193130493e-01 9.953209012746810913e-02 1.516033113002777100e-01
-2.637647092342376709e-01 1.223522424697875977e-01 -9.592845290899276733e-02
-4.987412393093109131e-01 -4.914322122931480408e-02 5.543010309338569641e-02
1.873029321432113647e-01 -1.770860105752944946e-01 1.266213320195674896e-02
3.460548818111419678e-02 1.759817898273468018e-01 -3.191187977790832520e-02
-5.148364305496215820e-01 -5.690914019942283630e-02 1.994475349783897400e-02
1.400304287672042847e-01 -1.655817478895187378e-01 7.085334509611129761e-02
-4.282835870981216431e-02 1.778618395328521729e-01 -2.298602834343910217e-02
-2.471594214439392090e-01 7.666065543889999390e-02 1.472607254981994629e-01
1.598173379898071289e-01 -1.838184148073196411e-02 -1.745538860559463501e-01
-3.164681792259216309e-01 -1.445964165031909943e-02 -1.472412794828414917e-01
4.119118452072143555e-01 -6.835702061653137207e-02 1.020221039652824402e-01
2.365513890981674194e-02 -1.210048571228981018e-01 -1.442873477935791016e-01
4.795692861080169678e-02 -1.471337527036666870e-01 -1.183281540870666504e-01
-2.151485830545425415e-01 -8.556205034255981445e-02 -1.479039043188095093e-01
-4.197414815425872803e-01 -7.836788892745971680e-02 -8.861964195966720581e-02
-8.536743372678756714e-02 5.132236331701278687e-02 1.756447404623031616e-01
-3.215972483158111572e-01 8.146769553422927856e-02 -1.178748905658721924e-01
5.433039367198944092e-02 4.620376229286193848e-02 -1.727165579795837402e-01
4.519217312335968018e-01 -9.038192033767700195e-02 -6.421520560979843140e-02
2.810334563255310059e-01 2.838150970637798309e-02 1.555731296539306641e-01
-5.729139968752861023e-02 1.469089090824127197e-01 1.108786985278129578e-01
4.964475631713867188e-01 4.390431195497512817e-02 -5.752483382821083069e-02
1.718854010105133057e-01 -7.904160022735595703e-02 -1.594745814800262451e-01
-2.490525394678115845e-01 -1.493374705314636230e-01 6.738399714231491089e-02
-1.879977583885192871e-01 1.323166042566299438e-01 1.136886179447174072e-01
-5.124680995941162109e-01 -5.072918906807899475e-02 -3.635790944099426270e-02
-1.448228359222412109e-01 -3.932750597596168518e-02 1.726076304912567139e-01
1.554362773895263672e-01 -6.721866875886917114e-02 1.628641933202743530e-01
2.603176236152648926e-01 -1.512830853462219238e-01 6.563500314950942993e-02
-3.714789450168609619e-01 1.152784228324890137e-01 -6.100554391741752625e-02
-2.289111912250518799e-01 8.518134057521820068e-02 -1.370421350002288818e-01
-1.414458751678466797e-01 -7.606013119220733643e-02 -1.623876988887786865e-01
-2.656054794788360596e-01 -1.605489701032638550e-01 -3.035011515021324158e-02
4.875156283378601074e-01 -6.035321205854415894e-02 -6.620392948389053345e-02
-1.248905360698699951e-01 -1.719045639038085938e-01 -6.406728923320770264e-02
2.665438652038574219e-01 9.955895692110061646e-02 1.261335909366607666e-01
-1.697096675634384155e-01 -1.274821162223815918e-01 -1.249199882149696350e-01
-4.362477958202362061e-01 -6.898678094148635864e-02 -8.674784749746322632e-02
2.750629484653472900e-01 -1.616130918264389038e-01 -3.651481121778488159e-02
1.479505449533462524e-01 1.701928675174713135e-01 3.932132571935653687e-02
5.300091579556465149e-02 5.035660415887832642e-02 1.770627796649932861e-01
4.589315652847290039e-01 -3.173632174730300903e-02 9.636256098747253418e-02
-1.377412676811218262e-01 -2.584084123373031616e-02 -1.751783639192581177e-01
-3.842035233974456787e-01 -4.655567184090614319e-02 -1.215021014213562012e-01
2.281576991081237793e-01 -1.639851778745651245e-01 4.792017862200737000e-02
3.154503405094146729e-01 -5.414646491408348083e-02 -1.431933790445327759e-01
4.128253459930419922e-01 -1.096898466348648071e-01 -6.613685190677642822e-02
3.914090618491172791e-02 -1.350430995225906372e-01 -1.317043453454971313e-01
1.315907239913940430e-01 9.223776310682296753e-02 1.540432274341583252e-01
2.221069484949111938e-01 1.118081882596015930e-01 1.258265376091003418e-01
-5.475049465894699097e-02 7.013286650180816650e-02 1.706696897745132446e-01
5.326252803206443787e-02 -4.883574321866035461e-02 -1.774729788303375244e-01
-1.150034666061401367e-01 9.195549413561820984e-03 1.801619529724121094e-01
-3.794994950294494629e-01 1.217094361782073975e-01 -4.161611199378967285e-02
1.212765052914619446e-01 -4.700836725533008575e-03 -1.779515594244003296e-01
-2.840702831745147705e-01 8.764138817787170410e-02 -1.236188933253288269e-01
2.336400896310806274e-01 -1.898874156177043915e-02 -1.651564687490463257e-01
5.661699175834655762e-02 -1.463391631841659546e-01 1.106529906392097473e-01
3.519256412982940674e-01 1.045350283384323120e-01 9.256025403738021851e-02
2.594137191772460938e-01 -7.562946528196334839e-02 -1.474534869194030762e-01
1.918127685785293579e-01 8.997794240713119507e-02 1.477210074663162231e-01
1.456980407238006592e-01 -1.808335036039352417e-01 -2.767790853977203369e-02
-2.530937492847442627e-01 -1.624212861061096191e-01 -3.347351774573326111e-02
-5.213440656661987305e-01 -1.462582871317863464e-02 5.223667994141578674e-02
2.160108387470245361e-01 1.644080430269241333e-01 1.750732958316802979e-02
-1.769763827323913574e-01 9.847927838563919067e-02 1.459222733974456787e-01
1.595235168933868408e-01 4.354098811745643616e-02 1.711876690387725830e-01
2.964932620525360107e-01 1.373650133609771729e-01 6.633363664150238037e-02
1.371212899684906006e-01 1.231811642646789551e-01 -1.189448013901710510e-01
-2.223197966814041138e-01 -1.355278939008712769e-01 9.845530241727828979e-02
-8.054342120885848999e-02 1.711023002862930298e-01 -4.598267748951911926e-02
5.112193822860717773e-01 4.094009846448898315e-02 4.815918952226638794e-02
3.093304634094238281e-01 1.466286033391952515e-01 1.625100895762443542e-02
6.893138401210308075e-03 -1.763735413551330566e-01 -6.893885880708694458e-02
2.756085693836212158e-01 1.421113163232803345e-01 6.662775576114654541e-02
-2.348375618457794189e-01 -1.073530912399291992e-01 -1.301108747720718384e-01
-8.239331841468811035e-02 -1.756021380424499512e-01 5.300932750105857849e-02
1.735904961824417114e-01 1.697652935981750488e-01 2.195720002055168152e-02
3.242036104202270508e-01 -1.375613063573837280e-01 6.386849284172058105e-02
-3.363022506237030029e-01 -5.568094924092292786e-02 1.331057101488113403e-01
5.838665366172790527e-02 1.383551359176635742e-01 -1.090142875909805298e-01
-1.876624077558517456e-01 2.875869162380695343e-02 1.714133322238922119e-01
-9.765258431434631348e-02 -3.977199085056781769e-04 1.813547015190124512e-01
4.824554324150085449e-01 -6.662577390670776367e-02 -6.516125798225402832e-02
3.012547194957733154e-01 6.863112002611160278e-02 1.375365853309631348e-01
9.033837914466857910e-02 -5.911212041974067688e-02 -1.733755469322204590e-01
2.385998964309692383e-01 -3.456742689013481140e-02 1.619746088981628418e-01
1.456275880336761475e-01 -1.821168810129165649e-01 1.222696620970964432e-03
-7.282930612564086914e-02 -1.798108667135238647e-01 4.069874063134193420e-02
-4.926547780632972717e-02 -1.336566656827926636e-01 -1.318620294332504272e-01
-1.545175313949584961e-01 1.637801527976989746e-01 6.602393090724945068e-02
8.528214693069458008e-02 1.757357269525527954e-01 3.650152310729026794e-02
4.264728724956512451e-01 -9.989088401198387146e-03 1.152950003743171692e-01
7.091069221496582031e-02 8.333003148436546326e-03 1.826083362102508545e-01
2.190772891044616699e-01 -1.086727008223533630e-01 -1.357072144746780396e-01
-2.925687730312347412e-01 1.261654496192932129e-01 -8.137010037899017334e-02
4.168006479740142822e-01 4.197290912270545959e-02 -1.071616336703300476e-01
-3.029202222824096680e-01 9.882022440433502197e-02 -1.094890534877777100e-01
-2.359752953052520752e-01 1.358677744865417480e-01 -8.530006557703018188e-02
2.179990857839584351e-01 4.166977480053901672e-02 1.640268266201019287e-01
-3.279173672199249268e-01 -8.467923104763031006e-02 1.191025972366333008e-01
-1.706464141607284546e-01 -9.312231838703155518e-02 1.467698067426681519e-01
-3.179832994937896729e-01 1.477983444929122925e-01 7.697984576225280762e-03
3.691715747117996216e-02 -1.858184337615966797e-01 -3.176686912775039673e-02
-4.276312589645385742e-01 -9.022117406129837036e-02 6.901937723159790039e-02
1.222235709428787231e-01 1.602539420127868652e-01 7.872485369443893433e-02
9.521432220935821533e-02 7.894255220890045166e-02 -1.567169129848480225e-01
-5.336964130401611328e-01 2.848989702761173248e-02 2.507499605417251587e-02
-4.017235338687896729e-01 1.122537031769752502e-01 -4.474202543497085571e-02
-1.296219378709793091e-01 1.732303053140640259e-01 -2.456341311335563660e-02
1.622463315725326538e-01 -1.806860417127609253e-01 -2.127342158928513527e-03
-3.693595230579376221e-01 3.634026646614074707e-02 -1.261095255613327026e-01
3.340862989425659180e-01 7.428494840860366821e-02 -1.185963228344917297e-01
1.480128169059753418e-01 2.356344275176525116e-02 1.760291010141372681e-01
1.476037949323654175e-01 -1.455425918102264404e-01 -1.114724949002265930e-01
1.848030388355255127e-01 1.271045207977294922e-01 -1.071201041340827942e-01
2.183196879923343658e-02 1.184931397438049316e-01 -1.317147165536880493e-01
-8.079970628023147583e-02 -1.042287349700927734e-01 1.481609791517257690e-01
3.625868260860443115e-02 1.756263338029384613e-02 1.832735091447830200e-01
-4.748864471912384033e-01 -4.062237590551376343e-02 -7.981714606285095215e-02
4.373890534043312073e-02 2.975596301257610321e-02 -1.774405241012573242e-01
1.389412134885787964e-01 -1.625162810087203979e-01 -8.694896101951599121e-02
4.248431026935577393e-01 -8.221215009689331055e-02 -9.019066393375396729e-02
-2.522448599338531494e-01 -8.730487525463104248e-02 1.366907656192779541e-01
2.927384376525878906e-01 1.358453631401062012e-01 7.163733989000320435e-02
-1.976947337388992310e-01 -1.703604906797409058e-01 -3.949070349335670471e-02
-5.206295251846313477e-01 -6.580343469977378845e-03 5.487704277038574219e-02
-3.727945983409881592e-01 1.308406144380569458e-01 2.928343415260314941e-02
-1.566691547632217407e-01 1.344515234231948853e-01 -1.042351275682449341e-01
4.654088616371154785e-01 -1.009012162685394287e-01 2.033156901597976685e-02
-2.385944426059722900e-01 -8.068348467350006104e-02 1.434147059917449951e-01
2.418997585773468018e-01 9.547851234674453735e-02 1.349491626024246216e-01
2.497974634170532227e-01 -2.317933551967144012e-02 1.621453464031219482e-01
2.522803843021392822e-01 -1.226068884134292603e-01 -1.169468984007835388e-01
-6.269215047359466553e-02 -9.912490099668502808e-02 1.526143252849578857e-01
-8.079611510038375854e-02 1.762976795434951782e-01 3.947590291500091553e-02
-5.773571878671646118e-02 1.387579143047332764e-01 1.212703809142112732e-01
1.065849587321281433e-01 1.759271323680877686e-01 -9.919828735291957855e-03
2.071853429079055786e-01 6.042096018791198730e-02 1.598483920097351074e-01
-1.237870752811431885e-01 -8.267447352409362793e-02 -1.612416803836822510e-01
2.194011509418487549e-01 -5.114734917879104614e-02 1.605813503265380859e-01
-1.757960319519042969e-01 1.620580404996871948e-01 6.431476026773452759e-02
2.414442896842956543e-01 4.613616690039634705e-02 1.589812636375427246e-01
-2.139865010976791382e-01 7.338312268257141113e-02 -1.465002000331878662e-01
-6.569995731115341187e-02 7.736632972955703735e-02 -1.592429429292678833e-01
-4.264323711395263672e-01 -7.637978345155715942e-02 8.466695249080657959e-02
2.517223954200744629e-01 -8.018739521503448486e-02 -1.468340158462524414e-01
5.201700329780578613e-01 2.119420841336250305e-02 -4.966284707188606262e-02
-1.960220038890838623e-01 9.362712502479553223e-02 -1.368632465600967407e-01
2.089983224868774414e-01 -9.068205952644348145e-02 -1.488138884305953979e-01
-1.818888932466506958e-01 -1.243430301547050476e-01 1.198538467288017273e-01
4.463020563125610352e-01 9.153199195861816406e-02 -4.000606015324592590e-02
-2.368990890681743622e-02 1.807209700345993042e-01 4.736816510558128357e-03
1.472607813775539398e-02 -1.860948055982589722e-01 2.026386559009552002e-02
-3.178364336490631104e-01 -1.480024158954620361e-01 2.674078196287155151e-02
-3.498752415180206299e-01 9.324250370264053345e-02 -9.892281144857406616e-02
2.299844622611999512e-01 7.746290415525436401e-02 1.484442651271820068e-01
-1.877010017633438110e-01 1.163841411471366882e-01 1.303390413522720337e-01
4.210851192474365234e-01 1.117616146802902222e-01 -4.880920052528381348e-03
5.052392482757568359e-01 -3.516702726483345032e-02 -6.603651493787765503e-02
-1.561228185892105103e-01 -1.698846518993377686e-01 -6.056489050388336182e-02
-4.837342500686645508e-01 -4.854708164930343628e-02 -6.905240565538406372e-02
-3.390344679355621338e-01 -7.590336352586746216e-02 1.215519532561302185e-01
-7.928001880645751953e-02 1.227786391973495483e-01 -1.254556030035018921e-01
5.345687866210937500e-01 3.230499848723411560e-02 -1.023902930319309235e-02
2.016786038875579834e-01 9.645015746355056763e-02 -1.334168761968612671e-01
-2.656316757202148438e-01 1.331055909395217896e-01 -8.034560084342956543e-02
2.155204489827156067e-02 -1.128423735499382019e-01 1.445498317480087280e-01
-5.366847515106201172e-01 2.393517084419727325e-02 2.199883759021759033e-02
-3.164700567722320557e-01 -7.681937515735626221e-02 -1.299134641885757446e-01
5.226070880889892578e-01 -3.633072227239608765e-02 -4.768877103924751282e-02
-3.273165524005889893e-01 1.051470711827278137e-01 1.059548556804656982e-01
2.927318215370178223e-01 -2.963162586092948914e-02 1.527782231569290161e-01
-4.932242929935455322e-01 2.931669913232326508e-02 7.443893700838088989e-02
-1.842598617076873779e-01 -1.001877710223197937e-01 1.400866359472274780e-01
1.007403433322906494e-02 -1.340467035770416260e-01 1.257693618535995483e-01
3.574655055999755859e-01 2.636262774467468262e-02 -1.338090598583221436e-01
3.104072809219360352e-01 1.466987580060958862e-01 2.650445792824029922e-03
1.977206170558929443e-01 1.236852109432220459e-01 -1.086224541068077087e-01
-3.303605616092681885e-01 -1.115292906761169434e-01 -9.832049906253814697e-02
1.541434824466705322e-01 2.563962340354919434e-02 1.751531213521957397e-01
-3.349488377571105957e-01 -7.256079465150833130e-02 -1.267418116331100464e-01
4.931751489639282227e-01 6.538150459527969360e-02 -3.348521888256072998e-02
-2.303321361541748047e-01 1.475466191768646240e-01 7.991604506969451904e-02
1.635671705007553101e-01 -1.088308244943618774e-01 -1.439106911420822144e-01
2.510146796703338623e-01 -1.669949442148208618e-01 -3.102381527423858643e-02
-6.837193667888641357e-02 -1.823696941137313843e-01 3.059036284685134888e-02
-3.049062788486480713e-01 1.410614699125289917e-01 5.990476906299591064e-02
1.439629197120666504e-01 9.675422310829162598e-02 1.498709768056869507e-01
-1.115881726145744324e-01 1.774127632379531860e-01 3.972444683313369751e-03
-4.571090638637542725e-01 -3.808521199971437454e-03 -9.765442460775375366e-02
8.892469108104705811e-02 1.488779485225677490e-01 1.042652055621147156e-01
2.423450052738189697e-01 1.566152125597000122e-01 4.190133512020111084e-02
1.287082284688949585e-01 -3.630362823605537415e-02 -1.756455898284912109e-01
-4.798712730407714844e-01 2.618668973445892334e-02 -7.941266149282455444e-02
4.839748516678810120e-02 1.220700442790985107e-01 1.382670551538467407e-01
-3.123432397842407227e-01 -3.918527439236640930e-02 1.453619450330734253e-01
1.563719101250171661e-02 1.095946803689002991e-01 1.494608074426651001e-01
-1.924081444740295410e-01 1.486530005931854248e-01 -7.567653059959411621e-02
-2.960429489612579346e-01 -5.662363767623901367e-02 -1.439961344003677368e-01
-2.022378444671630859e-01 -1.657009273767471313e-01 4.582452028989791870e-02
-4.294862449169158936e-01 -5.479403771460056305e-04 1.141785457730293274e-01
3.708094358444213867e-01 -1.407166570425033569e-01 -2.035679295659065247e-02
-7.453461736440658569e-02 -1.620051115751266479e-01 -9.375693649053573608e-02
4.808733165264129639e-01 -2.790898084640502930e-03 -8.763469010591506958e-02
-3.184889853000640869e-01 -1.504441052675247192e-01 9.056696668267250061e-03
9.288032352924346924e-02 1.419709324836730957e-01 1.135180518031120300e-01
1.424035876989364624e-01 -1.317772120237350464e-01 -1.274680793285369873e-01
-3.536340892314910889e-01 -6.260014325380325317e-02 1.245697215199470520e-01
-3.283067643642425537e-01 -3.662525117397308350e-02 -1.414152383804321289e-01
5.249571204185485840e-01 3.284642472863197327e-02 -3.371255472302436829e-02
4.270311892032623291e-01 6.375159602612257004e-03 1.150412112474441528e-01
-4.132704138755798340e-01 8.416103571653366089e-02 8.843084424734115601e-02
-2.847172021865844727e-01 -1.542101055383682251e-01 -4.141586273908615112e-02
4.171568453311920166e-01 -1.130761429667472839e-01 -5.676868557929992676e-02
2.754743210971355438e-02 1.538230627775192261e-01 1.012860238552093506e-01
1.283876597881317139e-01 6.739376485347747803e-02 -1.599974930286407471e-01
3.209657371044158936e-01 -1.478682458400726318e-01 -5.009728670120239258e-02
4.369706809520721436e-01 1.621175743639469147e-02 1.095341891050338745e-01
-5.304152369499206543e-01 -4.041508957743644714e-02 -1.077312510460615158e-02
1.025142520666122437e-01 -1.307741552591323853e-01 1.251144856214523315e-01
1.118083223700523376e-01 4.366547986865043640e-02 1.755095869302749634e-01
-4.590358436107635498e-01 9.585117548704147339e-02 2.638335153460502625e-02
3.830451518297195435e-03 5.731732025742530823e-02 -1.697359234094619751e-01
4.069341421127319336e-01 7.102460414171218872e-02 -9.312854707241058350e-02
-1.317232549190521240e-01 8.834606409072875977e-02 -1.483565568923950195e-01
2.276502251625061035e-01 1.587755382061004639e-01 4.344202578067779541e-02
4.267849922180175781e-01 -1.143293082714080811e-01 3.736162930727005005e-02
-1.805825829505920410e-01 1.254415512084960938e-01 1.227087154984474182e-01
3.294066339731216431e-02 -1.788012236356735229e-01 -6.168772280216217041e-02
3.041307926177978516e-01 -1.015659049153327942e-01 1.159663274884223938e-01
1.849188208580017090e-01 -1.306825280189514160e-01 1.149535998702049255e-01
6.287061423063278198e-02 1.757934242486953735e-01 4.258706793189048767e-02
-1.937924027442932129e-01 1.697291582822799683e-01 7.862398400902748108e-03
-4.441686868667602539e-01 1.010513454675674438e-01 -2.507224678993225098e-02
-4.103033542633056641e-01 -9.569378942251205444e-02 7.337112724781036377e-02
-3.559689223766326904e-02 5.863993242383003235e-02 1.753152161836624146e-01
-1.265924125909805298e-01 1.935974508523941040e-02 1.786798685789108276e-01
-1.477846950292587280e-01 8.407329022884368896e-02 1.579767614603042603e-01
-1.005402803421020508e-01 -1.822377741336822510e-01 2.009112760424613953e-02
-4.010361433029174805e-02 1.591587662696838379e-01 9.223930537700653076e-02
3.466202318668365479e-01 -1.354977339506149292e-01 5.517154186964035034e-02
2.725307047367095947e-01 -1.159472689032554626e-01 1.114757731556892395e-01
4.375316500663757324e-01 -1.018299162387847900e-01 -5.937629565596580505e-02
1.531815379858016968e-01 -1.777716279029846191e-01 -4.167562350630760193e-02
-1.822570413351058960e-01 -1.411542296409606934e-01 1.001001521944999695e-01
4.357950091361999512e-01 9.255078434944152832e-02 -4.880619794130325317e-02
-8.609932661056518555e-02 -1.750059872865676880e-01 -6.397057324647903442e-02
-4.094924628734588623e-01 1.737998425960540771e-02 1.215038970112800598e-01
-1.603582203388214111e-01 -1.424471139907836914e-01 -1.099083945155143738e-01
2.979623377323150635e-01 1.211962178349494934e-01 -8.385086059570312500e-02
-4.086003601551055908e-01 -6.093655899167060852e-02 1.048649325966835022e-01
-1.303806304931640625e-01 1.572224050760269165e-01 -7.257145643234252930e-02
-4.572430253028869629e-01 7.208914309740066528e-02 7.226932793855667114e-02
1.929762065410614014e-01 7.204277068376541138e-02 1.571162343025207520e-01
-5.270698070526123047e-01 1.804871298372745514e-02 -3.950827941298484802e-02
6.657149642705917358e-02 1.670605391263961792e-01 7.184524089097976685e-02
4.469521343708038330e-01 -2.488344907760620117e-02 -1.049514040350914001e-01
7.922253012657165527e-02 7.386954873800277710e-02 -1.603497266769409180e-01
-1.199679970741271973e-01 -1.727216690778732300e-01 5.341411381959915161e-02
-7.397229224443435669e-02 1.605987995862960815e-01 -7.336872071027755737e-02
-5.389522910118103027e-01 -2.504706382751464844e-02 9.737174957990646362e-03
-2.157850861549377441e-01 -2.362086623907089233e-02 1.672863960266113281e-01
-1.725286692380905151e-01 1.304843425750732422e-01 1.185674071311950684e-01
-4.674313366413116455e-01 1.648521423339843750e-02 -8.980662375688552856e-02
6.609612703323364258e-02 5.232962220907211304e-02 1.759795993566513062e-01
1.337336897850036621e-01 1.623417437076568604e-01 7.123314589262008667e-02
2.338625043630599976e-01 -7.121556252241134644e-02 -1.539187580347061157e-01
5.227271467447280884e-02 1.675538122653961182e-01 7.224604487419128418e-02
2.913277745246887207e-01 -1.285705119371414185e-01 -9.933687001466751099e-02
2.076567411422729492e-01 -1.283473968505859375e-01 -1.208150237798690796e-01
-4.361349940299987793e-01 1.079510673880577087e-01 -1.109194848686456680e-02
2.428154796361923218e-01 -1.561187654733657837e-01 6.208337470889091492e-02
-2.585400938987731934e-01 7.792757451534271240e-02 1.443572342395782471e-01
4.023166596889495850e-01 -1.163507923483848572e-01 -6.255768239498138428e-02
3.606294691562652588e-01 -3.202755749225616455e-02 1.350684911012649536e-01
4.401530325412750244e-01 -1.132034882903099060e-01 2.161931246519088745e-02
5.325950980186462402e-01 3.929967526346445084e-03 4.248069599270820618e-02
-4.598538577556610107e-01 4.174174740910530090e-02 -8.503822982311248779e-02
-2.617063224315643311e-01 6.104747205972671509e-02 1.514049917459487915e-01
