-4.203366041183471680e-01 -1.524272114038467407e-01 7.185737788677215576e-02
2.131479233503341675e-01 3.871693313121795654e-01 1.519911084324121475e-02
1.292498111724853516e-01 1.558101922273635864e-01 -9.007246792316436768e-02
2.917428314685821533e-01 1.756637841463088989e-01 -8.403426408767700195e-02
-2.749029546976089478e-02 -1.111122593283653259e-01 -9.280268102884292603e-02
-9.827963262796401978e-02 -2.425973676145076752e-02 -9.713553637266159058e-02
3.137484192848205566e-01 1.315623223781585693e-01 -8.358337730169296265e-02
2.145542055368423462e-01 2.027677744626998901e-01 8.582121878862380981e-02
-1.912456154823303223e-01 -3.579960763454437256e-01 -3.881491720676422119e-02
1.614388078451156616e-01 9.078633785247802734e-02 -9.352519363164901733e-02
-1.997109204530715942e-01 -2.593086659908294678e-01 7.445840537548065186e-02
-2.362209111452102661e-01 -2.179425954818725586e-01 -8.451899141073226929e-02
5.430634617805480957e-01 2.910876870155334473e-01 -4.538115486502647400e-02
-2.371083796024322510e-01 1.126590892672538757e-01 6.285822391510009766e-02
6.573529541492462158e-02 3.513946011662483215e-02 9.698682278394699097e-02
3.316842019557952881e-01 -9.453307837247848511e-02 -4.108190163969993591e-02
6.132845282554626465e-01 2.912544906139373779e-01 -2.306646667420864105e-02
2.706498801708221436e-01 -2.433055080473423004e-02 7.854757457971572876e-02
4.949540793895721436e-01 1.637762933969497681e-01 6.230818480253219604e-02
3.011137619614601135e-02 2.153176665306091309e-01 7.526264339685440063e-02
5.970385074615478516e-01 1.687641441822052002e-01 -2.188110537827014923e-02
5.083290338516235352e-01 3.392027914524078369e-01 4.697407409548759460e-02
-3.977605402469635010e-01 -2.780206501483917236e-01 6.693267822265625000e-02
-1.757926046848297119e-01 1.694175228476524353e-02 8.882775902748107910e-02
3.712080121040344238e-01 1.949828565120697021e-01 7.985873520374298096e-02
-2.339531183242797852e-01 -2.623015940189361572e-01 7.446659356355667114e-02
-9.212655574083328247e-02 2.032122164964675903e-01 6.199382990598678589e-02
2.807957828044891357e-01 2.134473808109760284e-02 -8.113589137792587280e-02
-9.817139804363250732e-02 1.881325095891952515e-01 6.600016355514526367e-02
5.812380909919738770e-01 3.453955352306365967e-01 -2.386225573718547821e-02
8.344986289739608765e-02 -1.078233644366264343e-01 8.630322664976119995e-02
-3.980705514550209045e-03 2.876282036304473877e-01 4.176314920186996460e-02
6.284904479980468750e-01 2.915525436401367188e-01 1.888911426067352295e-02
-4.380691647529602051e-01 -1.677379310131072998e-01 6.959163397550582886e-02
6.061606407165527344e-01 2.264024019241333008e-01 -2.730139344930648804e-02
5.308232903480529785e-01 3.498418033123016357e-01 4.020702093839645386e-02
2.545348107814788818e-01 3.999404609203338623e-01 3.914478700608015060e-03
-3.155677020549774170e-01 4.857463389635086060e-02 6.371806561946868896e-02
-4.131297767162322998e-01 -9.926521778106689453e-02 6.980179995298385620e-02
7.871336489915847778e-02 -1.394539326429367065e-01 8.115808665752410889e-02
-4.734054505825042725e-01 3.999178297817707062e-03 -2.976418472826480865e-02
3.248412311077117920e-01 -1.019247844815254211e-01 4.292443022131919861e-02
-2.910710275173187256e-01 -1.208917871117591858e-01 8.566678315401077271e-02
3.458642065525054932e-01 -1.367240585386753082e-02 6.738755106925964355e-02
5.726232528686523438e-01 2.338631749153137207e-01 -4.086221009492874146e-02
2.641475498676300049e-01 2.338813804090023041e-02 -8.342016488313674927e-02
4.224809408187866211e-01 -1.562093943357467651e-02 4.504050314426422119e-02
-2.047471255064010620e-01 -1.555562168359756470e-01 8.889140933752059937e-02
-5.246058851480484009e-02 -2.336385697126388550e-01 -7.268307358026504517e-02
-1.357332020998001099e-01 -1.380417943000793457e-01 9.122651070356369019e-02
1.614528447389602661e-01 2.487774044275283813e-01 -7.619173079729080200e-02
-4.758373200893402100e-01 -2.854030132293701172e-01 5.824993550777435303e-02
6.314178109169006348e-01 3.164093792438507080e-01 2.206572331488132477e-03
-5.239248871803283691e-01 -3.120793774724006653e-02 6.841953378170728683e-03
-4.375254511833190918e-01 -2.924435585737228394e-02 5.280065909028053284e-02
5.851375460624694824e-01 3.031201660633087158e-01 3.770565614104270935e-02
3.870243430137634277e-01 -7.154680043458938599e-02 -2.800014242529869080e-02
1.582246869802474976e-01 -4.846476763486862183e-02 8.809819072484970093e-02
-4.907365739345550537e-01 4.823534749448299408e-03 3.998050000518560410e-03
2.089868485927581787e-02 -2.422515153884887695e-01 -5.971472710371017456e-02
3.150366619229316711e-02 1.806436479091644287e-01 8.289316296577453613e-02
-4.677364826202392578e-01 -3.033542335033416748e-01 -6.135213747620582581e-02
3.183115422725677490e-01 1.904092878103256226e-01 -8.144181221723556519e-02
-4.943231642246246338e-01 -2.411640137434005737e-01 5.970440432429313660e-02
-4.958103299140930176e-01 -8.910275995731353760e-02 4.931402578949928284e-02
6.108988523483276367e-01 2.243053764104843140e-01 2.994806319475173950e-02
3.730640560388565063e-02 8.886962383985519409e-02 9.468149393796920776e-02
1.249015554785728455e-01 3.084641695022583008e-01 -5.527354776859283447e-02
-3.209742903709411621e-01 -3.307240009307861328e-01 -6.129962950944900513e-02
-2.585113644599914551e-01 -8.022019267082214355e-02 8.772561699151992798e-02
2.817118167877197266e-01 -1.607676446437835693e-01 2.008632011711597443e-02
-3.727250695228576660e-01 -2.383744567632675171e-01 -7.776782661676406860e-02
3.431628346443176270e-01 1.069163307547569275e-01 -7.992115616798400879e-02
2.557076141238212585e-02 -3.787648677825927734e-02 -9.634865075349807739e-02
-6.103124469518661499e-02 -2.758912444114685059e-01 5.907782539725303650e-02
-4.724005460739135742e-01 -2.166646569967269897e-01 -6.922365725040435791e-02
-4.015215337276458740e-01 -3.034170866012573242e-01 6.224954873323440552e-02
-5.453729033470153809e-01 -5.661426112055778503e-02 -1.394766010344028473e-02
-2.426442876458168030e-02 -4.713413119316101074e-02 9.643219411373138428e-02
4.566027224063873291e-01 2.732762694358825684e-01 6.532028317451477051e-02
3.889012038707733154e-01 1.335369348526000977e-01 7.834685593843460083e-02
1.942752897739410400e-01 3.747448027133941650e-01 -2.494869567453861237e-02
1.455477029085159302e-01 -1.876570582389831543e-01 5.709500983357429504e-02
4.062588810920715332e-01 1.403869986534118652e-01 7.630220055580139160e-02
-2.677957713603973389e-01 -3.745291233062744141e-01 -3.905766457319259644e-02
-1.373773068189620972e-01 -1.098450198769569397e-01 -9.489941596984863281e-02
-3.775611221790313721e-01 -5.179172754287719727e-02 7.065323740243911743e-02
-4.937478303909301758e-01 -2.218867987394332886e-01 6.055119261145591736e-02
1.205710023641586304e-01 -1.603117734193801880e-01 7.097905129194259644e-02
-3.035540878772735596e-01 -2.555494010448455811e-01 7.504740357398986816e-02
8.647227287292480469e-02 1.082870736718177795e-01 9.420708566904067993e-02
-3.240626752376556396e-01 1.087059974670410156e-01 3.903358802199363708e-02
1.634998172521591187e-01 2.961538732051849365e-01 -6.355272233486175537e-02
2.834720015525817871e-01 5.273109301924705505e-03 8.117148280143737793e-02
1.597178578376770020e-01 1.812149211764335632e-02 -9.255547821521759033e-02
3.432158231735229492e-01 3.487445712089538574e-01 -5.224020779132843018e-02
-8.460910618305206299e-02 1.043195724487304688e-01 8.630420267581939697e-02
1.026298850774765015e-01 3.138314187526702881e-01 4.976633936166763306e-02
3.998119831085205078e-01 1.456758677959442139e-01 7.732830941677093506e-02
-3.455164134502410889e-01 1.224036887288093567e-01 1.483095809817314148e-02
-2.760611772537231445e-01 -3.251944482326507568e-01 5.904320627450942993e-02
3.961338698863983154e-01 2.754433751106262207e-01 7.036396861076354980e-02
-4.593640565872192383e-01 -5.430745705962181091e-02 -5.772467330098152161e-02
1.836962997913360596e-01 -1.262841224670410156e-01 7.017333060503005981e-02
-1.217958629131317139e-01 2.587558627128601074e-01 -1.960410922765731812e-02
-4.610733389854431152e-01 1.764858327805995941e-02 2.324194647371768951e-02
1.203108429908752441e-01 1.763203889131546021e-01 -8.757298439741134644e-02
-4.160372614860534668e-01 -2.254985868930816650e-01 -7.545857131481170654e-02
2.698970437049865723e-01 3.729846775531768799e-01 4.004128277301788330e-02
3.408217430114746094e-01 3.590992689132690430e-01 5.073824152350425720e-02
3.139653503894805908e-01 2.423317879438400269e-01 -7.671367377042770386e-02
3.145924583077430725e-02 -3.005212247371673584e-01 -1.539075281471014023e-02
1.177700608968734741e-01 -1.067477017641067505e-01 -8.246874064207077026e-02
-1.001769304275512695e-01 1.111349277198314667e-02 -9.594962000846862793e-02
6.460321694612503052e-02 -1.172874569892883301e-01 -8.605245500802993774e-02
-2.171732783317565918e-01 7.303533703088760376e-02 -7.902142405509948730e-02
3.611312508583068848e-01 -5.203223228454589844e-02 5.235951393842697144e-02
-5.986273884773254395e-01 -1.454345285892486572e-01 -2.383839152753353119e-02
3.713552057743072510e-01 2.922702431678771973e-01 -6.607619673013687134e-02
3.100119158625602722e-02 2.966711521148681641e-01 -4.564472660422325134e-02
5.146967172622680664e-01 1.705071032047271729e-01 5.833125859498977661e-02
9.110125899314880371e-02 3.444561064243316650e-01 2.503679133951663971e-02
-2.093162983655929565e-01 1.539956033229827881e-01 5.495198443531990051e-02
1.223621740937232971e-01 7.848539203405380249e-02 9.560623019933700562e-02
-6.210368275642395020e-01 -1.868079304695129395e-01 1.461750734597444534e-02
-9.393759071826934814e-02 1.701229810714721680e-01 -7.366769015789031982e-02
4.628202915191650391e-01 3.230827748775482178e-01 -5.262772738933563232e-02
-5.337675213813781738e-01 -1.480813026428222656e-01 -5.373140797019004822e-02
-2.649090886116027832e-01 -2.133161872625350952e-01 8.187749236822128296e-02
5.269863605499267578e-01 3.527679145336151123e-01 -3.564229607582092285e-02
3.391541838645935059e-01 1.500980854034423828e-01 -8.113491535186767578e-02
-3.537194132804870605e-01 -4.142205417156219482e-01 -6.545327138155698776e-03
-4.936783909797668457e-01 -3.814086616039276123e-01 -3.583491593599319458e-02
2.667312696576118469e-02 -1.462228000164031982e-01 8.451418578624725342e-02
-2.224682420492172241e-01 6.138431653380393982e-02 7.756475359201431274e-02
-3.726489543914794922e-01 -3.035682737827301025e-01 -6.769395619630813599e-02
5.642669200897216797e-01 3.400962352752685547e-01 -3.090971522033214569e-02
-2.469035834074020386e-01 -5.488801375031471252e-02 -9.071249514818191528e-02
1.119154766201972961e-01 1.766522675752639771e-01 -8.736408501863479614e-02
-6.771367043256759644e-04 8.632745593786239624e-03 9.723398089408874512e-02
-3.704006671905517578e-01 -4.155062437057495117e-01 -7.281079422682523727e-03
-4.592812657356262207e-01 -1.275351047515869141e-01 6.379895657300949097e-02
-1.479138433933258057e-01 2.509728670120239258e-01 -3.788350615650415421e-03
3.486373424530029297e-01 2.648128569126129150e-01 -7.189397513866424561e-02
4.837536811828613281e-01 7.282805629074573517e-03 2.408234402537345886e-02
-4.924451410770416260e-01 -3.146899864077568054e-02 -3.842047974467277527e-02
6.306648850440979004e-01 2.797223627567291260e-01 1.853889599442481995e-02
3.103077113628387451e-01 -6.895710527896881104e-02 6.076883897185325623e-02
8.731307834386825562e-02 -2.705069780349731445e-01 2.200059778988361359e-02
-5.906323194503784180e-01 -3.773225247859954834e-01 -2.075316850095987320e-03
5.308723449707031250e-01 1.344578415155410767e-01 4.947895556688308716e-02
-3.906894624233245850e-01 -8.659123629331588745e-02 -7.680343091487884521e-02
-3.482857346534729004e-01 -2.803612649440765381e-01 6.934086233377456665e-02
-5.633796453475952148e-01 -2.713515162467956543e-01 -5.000685527920722961e-02
7.670828700065612793e-02 2.093706130981445312e-01 8.044084906578063965e-02
-2.661351859569549561e-01 -3.401367366313934326e-01 5.334053933620452881e-02
4.165145158767700195e-01 4.069020450115203857e-01 2.271648496389389038e-02
-1.014072299003601074e-01 -3.543094992637634277e-01 -1.275949180126190186e-02
4.749201238155364990e-01 3.136763274669647217e-01 5.701396986842155457e-02
1.529017090797424316e-01 -2.283405214548110962e-01 3.107221424579620361e-02
-4.984659552574157715e-01 -1.338292360305786133e-01 -6.120120733976364136e-02
6.157449483871459961e-01 1.951526850461959839e-01 2.089534513652324677e-02
-2.014492154121398926e-01 -6.107036396861076355e-02 -9.387805312871932983e-02
3.826474025845527649e-02 3.257647752761840820e-01 2.428242936730384827e-02
8.751838654279708862e-02 2.881017327308654785e-01 5.899383500218391418e-02
-2.642127871513366699e-01 -4.008703529834747314e-01 -5.976018495857715607e-03
2.104782909154891968e-01 -1.958607323467731476e-02 8.659091591835021973e-02
-3.230085670948028564e-01 -4.013554751873016357e-01 -2.389340475201606750e-02
-3.876997530460357666e-01 -3.903402090072631836e-01 -3.685482963919639587e-02
-1.525022536516189575e-01 -4.170200601220130920e-02 -9.573326259851455688e-02
1.892179846763610840e-01 3.840628862380981445e-01 7.863648235797882080e-03
5.428855866193771362e-02 3.092203438282012939e-01 -4.327178001403808594e-02
-1.731823682785034180e-01 -2.110510319471359253e-01 8.284968882799148560e-02
1.725195050239562988e-01 2.437066286802291870e-01 7.848318666219711304e-02
-6.711985915899276733e-02 1.278972327709197998e-01 8.412567526102066040e-02
-4.441389143466949463e-01 -2.405342012643814087e-01 -7.149845361709594727e-02
-6.261295676231384277e-01 -2.096327990293502808e-01 -2.359210886061191559e-02
1.436898410320281982e-01 -9.472101181745529175e-02 8.266776800155639648e-02
-4.213943332433700562e-02 3.552296757698059082e-02 9.556936472654342651e-02
4.645881429314613342e-02 -9.385616332292556763e-02 9.077318012714385986e-02
1.609336286783218384e-01 3.947526589035987854e-02 9.439119696617126465e-02
3.130688667297363281e-01 2.170788645744323730e-01 -7.963293045759201050e-02
6.136304736137390137e-01 2.498164772987365723e-01 3.016747534275054932e-02
5.277103185653686523e-01 2.537503242492675781e-01 5.636469274759292603e-02
5.433880686759948730e-01 1.215625777840614319e-01 4.219095036387443542e-02
-2.910217046737670898e-01 -1.626114398241043091e-01 8.473306149244308472e-02
-3.082006573677062988e-01 1.474632322788238525e-01 1.707389950752258301e-02
2.982761859893798828e-01 1.421467810869216919e-01 8.712448179721832275e-02
-4.312940407544374466e-03 -1.588587164878845215e-01 -8.488675206899642944e-02
5.786706134676933289e-02 -2.020783275365829468e-01 -6.765026599168777466e-02
1.388076599687337875e-02 3.028758466243743896e-01 -3.723528236150741577e-02
2.592502236366271973e-01 -2.458828128874301910e-02 -7.795804738998413086e-02
1.047274395823478699e-01 2.159301638603210449e-01 8.085171878337860107e-02
-4.512079656124114990e-01 -1.600610762834548950e-01 6.729517132043838501e-02
3.566952049732208252e-01 1.646489202976226807e-01 8.210618793964385986e-02
1.317557245492935181e-01 -9.507907181978225708e-02 8.387586474418640137e-02
2.121050208806991577e-01 -6.543253362178802490e-02 7.957772165536880493e-02
2.548026144504547119e-01 6.254990585148334503e-03 8.480718731880187988e-02
-2.681864202022552490e-01 -1.408101022243499756e-01 -9.003534913063049316e-02
-6.728124618530273438e-02 -9.943547844886779785e-02 -9.504190832376480103e-02
-1.502948254346847534e-01 -1.138481497764587402e-01 9.268781542778015137e-02
-2.615318000316619873e-01 4.351984336972236633e-02 7.492564618587493896e-02
-1.341394037008285522e-01 1.124726906418800354e-01 7.973518967628479004e-02
5.331391096115112305e-01 1.913397163152694702e-01 -5.053900182247161865e-02
-4.896242916584014893e-01 -4.015764594078063965e-01 -2.336507849395275116e-02
2.359122335910797119e-01 3.482073172926902771e-02 8.922759443521499634e-02
-1.088641285896301270e-01 -3.062534630298614502e-01 -5.406758561730384827e-02
-2.837321758270263672e-01 1.164098605513572693e-01 -5.322897434234619141e-02
9.015680104494094849e-02 1.329068839550018311e-01 -9.203039109706878662e-02
-1.331775933504104614e-01 -2.908827364444732666e-01 -6.330197304487228394e-02
1.199700832366943359e-01 1.306879371404647827e-01 9.284628927707672119e-02
-1.572934836149215698e-01 -8.638767898082733154e-02 -9.551829099655151367e-02
2.648193240165710449e-01 2.793420851230621338e-01 -7.149781286716461182e-02
-3.001835048198699951e-01 -1.395542025566101074e-01 -8.820997178554534912e-02
2.492497116327285767e-01 3.435867428779602051e-01 -5.168864503502845764e-02
4.890184402465820312e-01 3.917977511882781982e-01 2.832069061696529388e-02
5.287113785743713379e-01 1.094695180654525757e-01 4.505815356969833374e-02
-3.799178898334503174e-01 -2.554618716239929199e-01 7.131159305572509766e-02
1.002074684947729111e-02 2.025482952594757080e-01 -7.712419331073760986e-02
-3.845835626125335693e-01 -2.551970444619655609e-02 6.510980427265167236e-02
-7.638029754161834717e-02 -1.965809911489486694e-01 -8.313243836164474487e-02
-3.632981181144714355e-01 -3.676543831825256348e-01 -4.826763644814491272e-02
2.228517681360244751e-01 -1.583988666534423828e-01 -4.780242592096328735e-02
3.651685416698455811e-01 2.318298816680908203e-01 7.769278436899185181e-02
8.679639548063278198e-02 3.062268197536468506e-01 5.090191587805747986e-02
2.546914517879486084e-01 3.619224727153778076e-01 4.490979760885238647e-02
-4.052474498748779297e-01 -6.633785367012023926e-02 -7.207304239273071289e-02
-2.284814119338989258e-01 -1.173665449023246765e-01 -9.251427650451660156e-02
4.582187235355377197e-01 3.710376024246215820e-01 4.229610785841941833e-02
4.130246341228485107e-01 -5.641786754131317139e-02 -2.238753996789455414e-02
3.500121533870697021e-01 4.092735648155212402e-01 -1.438868232071399689e-02
3.685450255870819092e-01 3.989429771900177002e-01 2.935858815908432007e-02
3.765085041522979736e-01 2.317515015602111816e-01 7.691269367933273315e-02
3.718294203281402588e-01 2.607180774211883545e-01 -7.106927782297134399e-02
-3.308759331703186035e-01 -4.107175469398498535e-01 -1.017224043607711792e-02
3.299038112163543701e-02 7.267417758703231812e-02 9.562435746192932129e-02
2.560417652130126953e-01 3.985854387283325195e-01 -9.249506518244743347e-03
-3.340039849281311035e-01 -1.503417361527681351e-02 -7.687783241271972656e-02
4.933347702026367188e-01 2.687072157859802246e-01 6.108574196696281433e-02
-1.278997510671615601e-01 -1.132156886160373688e-02 -9.583251923322677612e-02
9.957522898912429810e-02 -2.638208866119384766e-01 -2.197150886058807373e-02
-5.461061596870422363e-01 -3.789498507976531982e-01 -2.762241102755069733e-02
-3.888828158378601074e-01 7.742990553379058838e-02 -3.108689934015274048e-02
-1.646517068147659302e-01 -3.522985875606536865e-01 -3.771773353219032288e-02
-2.934834957122802734e-01 -4.066312611103057861e-01 -1.927741337567567825e-03
-1.812656670808792114e-01 -3.081797361373901367e-01 5.985184386372566223e-02
1.379190534353256226e-01 -9.708478301763534546e-02 -8.185584843158721924e-02
-2.924062609672546387e-01 4.566521942615509033e-02 6.913205236196517944e-02
-6.007208228111267090e-01 -1.842321604490280151e-01 -3.422104567289352417e-02
4.853311181068420410e-01 -3.833959111943840981e-03 2.803130075335502625e-03
-1.819500029087066650e-01 1.590016484260559082e-01 -6.219227612018585205e-02
-3.142055869102478027e-01 -3.904079794883728027e-01 -3.291006758809089661e-02
5.462919473648071289e-01 1.565810143947601318e-01 -4.310464859008789062e-02
-4.949813708662986755e-02 -1.675503998994827271e-01 -8.653636276721954346e-02
-5.133925080299377441e-01 -2.502102851867675781e-01 5.594015121459960938e-02
4.257004261016845703e-01 -2.832051925361156464e-02 -3.373904153704643250e-02
4.376047849655151367e-01 1.015733480453491211e-01 -6.447649747133255005e-02
1.938716322183609009e-01 8.645005524158477783e-02 9.346544742584228516e-02
7.019079476594924927e-02 1.403021067380905151e-01 9.090312570333480835e-02
-3.524253368377685547e-01 -1.265694200992584229e-01 -8.383715897798538208e-02
1.061331406235694885e-01 -6.972383707761764526e-02 -8.908882737159729004e-02
-3.183013796806335449e-01 -3.469781577587127686e-02 7.799831032752990723e-02
-4.906660020351409912e-01 -1.512266099452972412e-01 -6.460253149271011353e-02
2.378301471471786499e-01 -1.585512757301330566e-01 -4.268561676144599915e-02
-7.662491500377655029e-02 -2.121053189039230347e-01 7.903380692005157471e-02
3.736495375633239746e-01 -6.280931085348129272e-02 4.327143356204032898e-02
-1.410854756832122803e-01 1.086398884654045105e-01 -8.176679909229278564e-02
2.397638708353042603e-01 3.513468205928802490e-01 4.891723021864891052e-02
-2.699269652366638184e-01 -2.591249719262123108e-02 8.331530541181564331e-02
2.348418682813644409e-01 5.068742111325263977e-02 9.024789184331893921e-02
-2.548728883266448975e-02 -4.044331610202789307e-03 -9.787072241306304932e-02
-7.770597934722900391e-02 2.539493739604949951e-01 4.178872704505920410e-02
-6.250454187393188477e-01 -3.236539959907531738e-01 -2.035987377166748047e-02
-6.775440648198127747e-03 1.446678768843412399e-02 -9.773221611976623535e-02
-1.927437037229537964e-01 -3.645756244659423828e-01 3.225958347320556641e-02
-1.529982835054397583e-01 -2.033985592424869537e-02 9.298955649137496948e-02
1.831825673580169678e-01 6.444890797138214111e-02 -9.260886162519454956e-02
-1.286240369081497192e-01 -1.567141115665435791e-01 -9.105717390775680542e-02
-2.054652273654937744e-01 -3.709103465080261230e-01 -3.164798393845558167e-02
2.448547482490539551e-01 3.981363773345947266e-01 1.447522081434726715e-03
5.557692050933837891e-01 1.924793720245361328e-01 4.900521785020828247e-02
4.291865229606628418e-01 -2.518464997410774231e-02 3.756898641586303711e-02
2.077395170927047729e-01 2.261864244937896729e-01 8.250669389963150024e-02
2.533663809299468994e-01 -1.584123671054840088e-01 3.892172500491142273e-02
5.258013606071472168e-01 3.953545987606048584e-01 1.727291010320186615e-02
6.671369075775146484e-02 2.302131056785583496e-01 7.494584470987319946e-02
3.107566833496093750e-01 -1.023309752345085144e-01 4.795106500387191772e-02
-2.209896892309188843e-01 7.399471849203109741e-02 7.537882775068283081e-02
-1.804118454456329346e-01 -1.047319397330284119e-01 -9.446607530117034912e-02
-9.618829935789108276e-03 1.218406558036804199e-01 -9.023337811231613159e-02
5.390557646751403809e-01 3.298502266407012939e-01 4.402432218194007874e-02
-6.897149235010147095e-02 1.420446932315826416e-01 8.137392252683639526e-02
3.791526556015014648e-01 4.062114655971527100e-01 2.310005575418472290e-02
-1.955883204936981201e-01 -2.335297322133556008e-04 8.860408514738082886e-02
-8.637759089469909668e-02 2.554560601711273193e-01 3.799504414200782776e-02
8.020769804716110229e-03 -2.998713850975036621e-01 -2.947014942765235901e-02
4.004694819450378418e-01 1.005832105875015259e-01 -7.129408419132232666e-02
2.933459877967834473e-01 -9.627328254282474518e-03 7.757765054702758789e-02
-5.429196953773498535e-01 -2.475170493125915527e-01 5.018272250890731812e-02
-3.619723916053771973e-01 -3.228340446949005127e-01 -6.341988593339920044e-02
-2.732235789299011230e-01 -2.635394632816314697e-01 -7.719794660806655884e-02
2.157175540924072266e-01 3.869794011116027832e-01 -1.554510276764631271e-02
-4.708356559276580811e-01 -3.022984862327575684e-01 5.629677325487136841e-02
4.438267648220062256e-01 2.630258500576019287e-01 6.787756830453872681e-02
-2.910532951354980469e-01 -1.313568055629730225e-01 -8.893457055091857910e-02
6.073247790336608887e-01 1.798107624053955078e-01 -1.766236312687397003e-02
1.502645295113325119e-02 3.127771019935607910e-01 2.831937558948993683e-02
-2.279667705297470093e-01 8.214455097913742065e-02 -7.554099708795547485e-02
-5.255639553070068359e-01 -3.744575083255767822e-01 -3.431025519967079163e-02
-4.548279643058776855e-01 -1.116778627038002014e-01 6.313131749629974365e-02
-5.462741255760192871e-01 -2.558346986770629883e-01 4.906347766518592834e-02
-1.850807219743728638e-01 -2.769542932510375977e-01 -7.170327752828598022e-02
4.716004058718681335e-02 1.350902915000915527e-01 -9.090551733970642090e-02
5.350036025047302246e-01 1.837780475616455078e-01 5.421913415193557739e-02
1.822160035371780396e-01 4.478553682565689087e-02 -9.220124036073684692e-02
5.745997428894042969e-01 2.272010594606399536e-01 4.509223997592926025e-02
1.794121563434600830e-01 3.788647949695587158e-01 -1.387520413845777512e-02
-2.985069453716278076e-01 1.610129922628402710e-01 -1.520951860584318638e-03
-5.171036720275878906e-01 -1.128233298659324646e-01 -5.304843932390213013e-02
1.624908149242401123e-01 3.086212277412414551e-01 -5.909054726362228394e-02
-4.192762076854705811e-01 -3.023413419723510742e-01 6.121473759412765503e-02
-2.249680012464523315e-01 1.751525849103927612e-01 -4.301954060792922974e-02
-5.617340207099914551e-01 -1.722995489835739136e-01 4.218938946723937988e-02
5.241930484771728516e-01 4.005587399005889893e-01 -6.470698863267898560e-03
-1.930954307317733765e-01 5.409206449985504150e-02 8.260378986597061157e-02
-3.324152529239654541e-01 -2.268338501453399658e-01 7.756342738866806030e-02
2.030569612979888916e-01 -1.695791780948638916e-01 5.029710754752159119e-02
4.100970923900604248e-01 4.169802069664001465e-01 3.553616348654031754e-03
4.145102798938751221e-01 3.281626105308532715e-01 -5.571252852678298950e-02
-1.538575887680053711e-01 -2.331843972206115723e-01 -8.024268597364425659e-02
3.392912745475769043e-01 1.229884400963783264e-01 8.366762101650238037e-02
2.027667611837387085e-01 8.329927921295166016e-02 -9.165349602699279785e-02
-4.757708609104156494e-01 -4.053957164287567139e-01 1.699406281113624573e-02
4.394214451313018799e-01 2.405287325382232666e-01 -6.682167947292327881e-02
3.656458258628845215e-01 2.482954114675521851e-01 7.589371502399444580e-02
-2.023252695798873901e-01 -3.601518273353576660e-02 -9.297486394643783569e-02
3.162368759512901306e-02 3.334719240665435791e-01 1.747748930938541889e-03
-2.217385917901992798e-01 -2.872132956981658936e-01 -7.082550227642059326e-02
-4.084188640117645264e-01 -3.401549458503723145e-01 5.304091423749923706e-02
-4.359927773475646973e-01 -3.727509677410125732e-01 4.018908366560935974e-02
-5.660350993275642395e-02 1.115936115384101868e-01 -8.885190635919570923e-02
-4.616305828094482422e-01 -1.429435610771179199e-01 6.454983353614807129e-02
2.163776755332946777e-01 3.152589201927185059e-01 -6.052166596055030823e-02
-5.495474338531494141e-01 -3.160937726497650146e-01 4.156007245182991028e-02
-3.211852908134460449e-02 3.061818778514862061e-01 -8.240964263677597046e-03
-2.209785878658294678e-01 -2.248013764619827271e-01 8.102197945117950439e-02
2.740912735462188721e-01 3.206239342689514160e-01 -6.093827262520790100e-02
4.525824785232543945e-01 3.142669051885604858e-02 -4.676806181669235229e-02
-1.371231377124786377e-01 -5.334236845374107361e-02 9.450857341289520264e-02
-1.068402081727981567e-01 2.594617009162902832e-01 2.607015892863273621e-02
-7.346132397651672363e-02 1.705846935510635376e-01 -7.613997906446456909e-02
1.154699400067329407e-01 -3.269214183092117310e-03 -9.415161609649658203e-02
-1.937334612011909485e-02 3.126281499862670898e-01 1.104195485822856426e-03
7.347033917903900146e-02 -4.212874919176101685e-02 9.428979456424713135e-02
1.442302465438842773e-01 2.872407436370849609e-01 -6.501168012619018555e-02
-4.944930672645568848e-01 -1.891054809093475342e-01 -6.574878096580505371e-02
-1.990445703268051147e-01 -2.994264364242553711e-01 -6.608553230762481689e-02
-2.618473470211029053e-01 5.666511505842208862e-02 7.229259610176086426e-02
1.718336790800094604e-01 -6.958547234535217285e-02 8.378306776285171509e-02
-3.615009188652038574e-01 -1.304300725460052490e-01 7.893078774213790894e-02
5.325976014137268066e-01 9.110052138566970825e-02 3.805340453982353210e-02
1.029704138636589050e-01 1.982565820217132568e-01 -8.380161225795745850e-02
-1.049974635243415833e-01 3.030071780085563660e-02 9.291360527276992798e-02
-3.700837492942810059e-01 4.045845195651054382e-02 -5.655421689152717590e-02
1.060918346047401428e-01 2.805510461330413818e-01 -6.388986110687255859e-02
2.395678311586380005e-01 -2.002179156988859177e-03 8.556325733661651611e-02
-2.822859585285186768e-01 -1.616804301738739014e-01 -8.849210292100906372e-02
3.694150447845458984e-01 1.033738180994987488e-01 7.939549535512924194e-02
-4.857669174671173096e-01 -3.830831944942474365e-01 -3.594177588820457458e-02
-3.078768029808998108e-02 1.739868819713592529e-01 -7.987341284751892090e-02
-1.253281980752944946e-01 -6.350440531969070435e-02 -9.658954292535781860e-02
6.061383709311485291e-02 -1.243602782487869263e-01 -8.526801317930221558e-02
6.297812461853027344e-01 2.108598351478576660e-01 -2.903667278587818146e-03
-5.359036326408386230e-01 -2.043040394783020020e-01 -5.766289308667182922e-02
-4.081482589244842529e-01 -3.393099308013916016e-01 -5.751213058829307556e-02
2.134721577167510986e-01 3.390191793441772461e-01 5.221118777990341187e-02
-1.092182919383049011e-01 2.678754627704620361e-01 -1.456472557038068771e-02
1.741288006305694580e-01 2.679774463176727295e-01 -7.222056388854980469e-02
3.576050698757171631e-01 2.294172532856464386e-02 7.222569733858108521e-02
5.268815159797668457e-01 1.525758504867553711e-01 -4.874352738261222839e-02
4.052242040634155273e-01 3.430832028388977051e-01 -5.220972374081611633e-02
1.949325799942016602e-01 2.010747790336608887e-01 8.600714057683944702e-02
-3.326676785945892334e-01 7.082575932145118713e-03 -7.335068285465240479e-02
-2.552808523178100586e-01 -2.236909568309783936e-01 -8.363337814807891846e-02
5.180817469954490662e-02 -7.329569011926651001e-02 -9.257155656814575195e-02
3.409872651100158691e-01 5.780679732561111450e-02 7.951235026121139526e-02
-9.452524781227111816e-02 2.774060964584350586e-01 6.115145049989223480e-03
6.120378151535987854e-02 2.478625178337097168e-01 -6.988564878702163696e-02
3.951884806156158447e-02 2.172332443296909332e-02 -9.739007055759429932e-02
-1.701913923025131226e-01 1.142356246709823608e-01 -7.692762464284896851e-02
3.695263862609863281e-01 2.391943931579589844e-01 7.666710764169692993e-02
-5.503306984901428223e-01 -3.833736479282379150e-01 -2.366599999368190765e-02
-8.063969016075134277e-02 -1.932953596115112305e-01 8.292531222105026245e-02
2.288837581872940063e-01 5.737650766968727112e-02 9.099119901657104492e-02
3.678597211837768555e-01 1.414773911237716675e-01 8.102857321500778198e-02
4.921656101942062378e-02 2.979214787483215332e-01 4.820212721824645996e-02
-5.104260444641113281e-01 -2.962704300880432129e-01 -5.717923864722251892e-02
-4.624003171920776367e-01 -1.023278832435607910e-01 6.035262718796730042e-02
1.547141075134277344e-01 -1.916725486516952515e-01 -5.180821195244789124e-02
-4.504740610718727112e-02 -4.770909249782562256e-02 9.644342213869094849e-02
-4.830188453197479248e-01 -2.287390232086181641e-01 6.209686398506164551e-02
-3.535688295960426331e-02 -2.465987950563430786e-01 -6.679102778434753418e-02
-3.985264301300048828e-01 -2.475269734859466553e-01 7.077268511056900024e-02
-2.794322073459625244e-01 -2.608833312988281250e-01 7.466462254524230957e-02
7.829101383686065674e-02 1.959051191806793213e-01 -8.316927403211593628e-02
9.239114820957183838e-02 2.795942127704620361e-01 6.280274689197540283e-02
1.203866899013519287e-01 1.820693314075469971e-01 8.722147345542907715e-02
3.071078956127166748e-01 1.921805888414382935e-01 8.437775075435638428e-02
5.035858154296875000e-01 4.035423994064331055e-01 -1.068774983286857605e-02
1.831622570753097534e-01 -1.193468272686004639e-01 7.210065424442291260e-02
3.019892573356628418e-01 -8.663249015808105469e-02 5.700916424393653870e-02
1.789451688528060913e-01 1.738204061985015869e-01 -8.809593319892883301e-02
-3.408427834510803223e-01 9.629165381193161011e-02 -4.300732910633087158e-02
9.730999171733856201e-02 3.087555468082427979e-01 5.140607431530952454e-02
-3.156917914748191833e-02 -2.366111129522323608e-01 -6.945961713790893555e-02
3.513408303260803223e-01 2.328577190637588501e-01 7.844641059637069702e-02
1.850222349166870117e-01 3.828797936439514160e-01 -7.363162469118833542e-03
6.457851082086563110e-02 1.454010903835296631e-01 -9.019600600004196167e-02
3.480387330055236816e-01 1.439106762409210205e-01 8.306642621755599976e-02
4.245198369026184082e-01 4.061750173568725586e-01 2.318450435996055603e-02
2.520904839038848877e-01 1.145417466759681702e-01 9.039037674665451050e-02
4.259325265884399414e-01 3.747824430465698242e-01 -3.959556668996810913e-02
-1.145323216915130615e-01 -3.436840474605560303e-01 -3.227391466498374939e-02
3.012450337409973145e-01 1.651865094900131226e-01 8.623235672712326050e-02
-2.690880000591278076e-01 -3.877379894256591797e-01 -2.904832735657691956e-02
1.404932886362075806e-01 2.176855131983757019e-02 9.476629644632339478e-02
3.544952869415283203e-01 1.384620927274227142e-02 -6.814031302928924561e-02
5.343374013900756836e-01 1.371877342462539673e-01 -4.406621679663658142e-02
-2.745518088340759277e-01 -3.789416253566741943e-01 -3.688393533229827881e-02
-1.715450435876846313e-01 1.764160245656967163e-01 5.530941113829612732e-02
2.116619497537612915e-01 2.698162496089935303e-01 -7.300426065921783447e-02
2.886728048324584961e-01 1.411219239234924316e-01 8.777795732021331787e-02
3.389235436916351318e-01 -9.816512465476989746e-02 -3.595674037933349609e-02
6.230019927024841309e-01 2.692662775516510010e-01 2.478477545082569122e-02
2.259514331817626953e-01 3.660949766635894775e-01 -3.786075115203857422e-02
-4.015904366970062256e-01 -1.291615217924118042e-01 -7.816600054502487183e-02
5.410948395729064941e-01 3.713422119617462158e-01 2.971340715885162354e-02
-3.424409031867980957e-01 4.211201891303062439e-02 5.916530266404151917e-02
4.940811395645141602e-01 1.260487139225006104e-01 5.876153334975242615e-02
-5.157436132431030273e-01 -2.347874790430068970e-01 -6.168176606297492981e-02
-3.833338618278503418e-01 4.614138603210449219e-02 4.581538587808609009e-02
-2.398027181625366211e-01 -3.896789550781250000e-01 -2.001252397894859314e-02
3.671580851078033447e-01 6.357000023126602173e-02 -7.313555479049682617e-02
-7.156645506620407104e-02 -3.435737192630767822e-01 -1.310140360146760941e-02
-4.865235090255737305e-01 -2.895868420600891113e-01 -6.137482076883316040e-02
-7.596200704574584961e-02 -1.166177093982696533e-01 -9.386129677295684814e-02
-4.906961321830749512e-01 -3.394290506839752197e-01 4.609312862157821655e-02
-4.017350971698760986e-01 -4.036166667938232422e-01 2.333078719675540924e-02
-6.556021422147750854e-02 4.337594285607337952e-02 9.412109851837158203e-02
-3.298322260379791260e-01 1.392403095960617065e-01 9.208419360220432281e-04
-2.177492827177047729e-01 1.261425614356994629e-01 6.281962990760803223e-02
-1.332413703203201294e-01 -2.953409254550933838e-01 6.023973971605300903e-02
-5.188467502593994141e-01 -2.040156126022338867e-01 -6.134838983416557312e-02
4.478108882904052734e-01 6.407786160707473755e-02 -5.627373605966567993e-02
-2.513314411044120789e-02 8.588244020938873291e-02 -9.353367239236831665e-02
-1.032996624708175659e-01 -2.164617627859115601e-01 -8.092124015092849731e-02
-4.980392009019851685e-02 -1.132635399699211121e-01 9.254932403564453125e-02
-3.527980446815490723e-01 2.517090737819671631e-02 6.116572022438049316e-02
-1.311078015714883804e-02 1.218118146061897278e-01 8.920504152774810791e-02
4.765474498271942139e-01 1.081844344735145569e-01 -5.643254145979881287e-02
-4.333611130714416504e-01 5.317246541380882263e-02 1.320639066398143768e-02
5.534861683845520020e-01 2.594469189643859863e-01 5.046519637107849121e-02
-1.062026992440223694e-01 1.664144098758697510e-01 -7.297737151384353638e-02
1.702292561531066895e-01 2.058858126401901245e-01 -8.413287252187728882e-02
7.814393192529678345e-02 2.281880378723144531e-01 7.639297097921371460e-02
3.026811778545379639e-01 -1.452319025993347168e-01 2.182243764400482178e-02
-5.519564747810363770e-01 -2.862736284732818604e-01 4.538149386644363403e-02
-1.641741991043090820e-01 -9.481481462717056274e-02 9.307051450014114380e-02
3.076218664646148682e-01 5.667151138186454773e-02 -8.111850917339324951e-02
3.129645884037017822e-01 3.899256885051727295e-01 3.270778805017471313e-02
-9.444334357976913452e-02 -2.761747241020202637e-01 6.305744498968124390e-02
5.884595513343811035e-01 1.967010200023651123e-01 3.759792447090148926e-02
-1.675547063350677490e-01 3.806981071829795837e-02 -8.971543610095977783e-02
-3.964760899543762207e-01 4.191860184073448181e-02 -4.740639030933380127e-02
2.011363506317138672e-01 3.708747625350952148e-01 3.120988234877586365e-02
-4.127602577209472656e-01 -3.317183554172515869e-01 -5.938560515642166138e-02
3.097143173217773438e-01 -1.230999678373336792e-01 -3.406894207000732422e-02
4.207929968833923340e-01 7.497848570346832275e-02 6.819728761911392212e-02
-3.020009398460388184e-01 -3.466691374778747559e-01 5.219538137316703796e-02
-3.874083757400512695e-01 -4.138597548007965088e-01 1.060312148183584213e-02
-2.588093280792236328e-01 -3.997254669666290283e-01 3.696345258504152298e-03
4.340524375438690186e-01 6.168539077043533325e-02 6.315765529870986938e-02
-2.451267391443252563e-01 1.635086983442306519e-01 -4.246972128748893738e-02
-1.641703993082046509e-01 -3.235917389392852783e-01 5.205660685896873474e-02
-6.160523891448974609e-01 -2.109210789203643799e-01 2.401587925851345062e-02
2.810309529304504395e-01 3.769249618053436279e-01 -3.690132871270179749e-02
1.555660218000411987e-01 3.022538498044013977e-02 -9.334277361631393433e-02
-3.673911094665527344e-01 -3.280831575393676758e-01 5.809353664517402649e-02
3.228624463081359863e-01 2.821268439292907715e-01 7.239113003015518188e-02
-3.633328974246978760e-01 -3.800281286239624023e-01 -4.232493788003921509e-02
-3.399405181407928467e-01 -2.947985827922821045e-01 6.685377657413482666e-02
-2.270575612783432007e-01 -3.543584346771240234e-01 4.389646649360656738e-02
-6.441758871078491211e-01 -2.656793594360351562e-01 -1.450969651341438293e-02
-5.164977908134460449e-02 3.937505185604095459e-02 -9.612263739109039307e-02
2.182642221450805664e-01 2.762740254402160645e-01 -7.165940105915069580e-02
4.747225344181060791e-01 1.738683134317398071e-01 -6.271731853485107422e-02
-3.465957641601562500e-01 3.172437846660614014e-02 -6.509901583194732666e-02
2.725484371185302734e-01 -1.163491904735565186e-01 -5.139810964465141296e-02
-1.783471256494522095e-01 2.343290746212005615e-01 2.165385056287050247e-03
6.105535104870796204e-02 3.296730518341064453e-01 -2.966211549937725067e-02
-3.336888849735260010e-01 -2.802953124046325684e-01 6.989821791648864746e-02
-1.448317021131515503e-01 -2.721837162971496582e-01 -7.030685991048812866e-02
1.802535951137542725e-01 -1.035930737853050232e-01 -7.483302056789398193e-02
4.286030530929565430e-01 1.339267641305923462e-01 -6.901474297046661377e-02
2.092886418104171753e-01 2.246572077274322510e-01 -8.148905634880065918e-02
-1.473966836929321289e-01 1.237322017550468445e-01 7.564541697502136230e-02
1.578642725944519043e-01 2.120608389377593994e-01 8.378329873085021973e-02
2.319137752056121826e-01 1.462483257055282593e-01 -8.873796463012695312e-02
-2.904242873191833496e-01 -1.743720918893814087e-01 -8.741423487663269043e-02
-4.816162288188934326e-01 -2.975272238254547119e-01 5.575760081410408020e-02
3.994439244270324707e-01 1.886431574821472168e-01 -7.410730421543121338e-02
2.783578336238861084e-01 -1.080510541796684265e-01 -5.301746726036071777e-02
3.824739456176757812e-01 3.006462156772613525e-01 -6.383878737688064575e-02
3.851104676723480225e-01 -8.137595141306519508e-04 6.144090741872787476e-02
5.066635012626647949e-01 1.783738136291503906e-01 6.066912040114402771e-02
-2.159088850021362305e-01 -2.781137228012084961e-01 -7.290185987949371338e-02
2.703751027584075928e-01 2.756520509719848633e-01 7.408016175031661987e-02
8.886138349771499634e-02 -7.524131983518600464e-02 -8.982306718826293945e-02
6.357051432132720947e-02 -2.893458306789398193e-01 -5.506533198058605194e-03
5.088208913803100586e-01 2.863095402717590332e-01 5.676832795143127441e-02
-3.073182404041290283e-01 5.491698905825614929e-02 6.389801204204559326e-02
-3.419145345687866211e-01 1.306884139776229858e-01 -4.443552461452782154e-05
-5.297436714172363281e-01 -2.664455771446228027e-01 5.179126933217048645e-02
-3.391292989253997803e-01 -2.232142090797424316e-01 7.753342390060424805e-02
4.892127960920333862e-02 2.019538581371307373e-01 7.997260242700576782e-02
-3.885755538940429688e-01 -2.749376296997070312e-01 6.804080307483673096e-02
4.909219741821289062e-01 3.616704344749450684e-01 -3.849161416292190552e-02
3.248807191848754883e-01 1.315062046051025391e-01 -8.253113180398941040e-02
-3.332579433917999268e-01 -1.863162368535995483e-01 8.069769293069839478e-02
-5.243392586708068848e-01 -4.564622044563293457e-02 -2.661827206611633301e-02
-7.569815963506698608e-02 1.158055663108825684e-01 8.533161878585815430e-02
3.347412347793579102e-01 4.080231487751007080e-01 -1.415303722023963928e-02
1.704163104295730591e-01 -6.096706166863441467e-02 8.524955809116363525e-02
5.406516790390014648e-01 1.925834566354751587e-01 5.331477150321006775e-02
6.525340676307678223e-02 1.762585155665874481e-02 9.696783125400543213e-02
5.773980021476745605e-01 2.656164467334747314e-01 4.379523545503616333e-02
2.947641313076019287e-01 -1.320251971483230591e-01 -3.528180345892906189e-02
-8.009457588195800781e-02 8.715345710515975952e-02 8.901702612638473511e-02
1.071961969137191772e-01 2.895815670490264893e-01 -6.078413501381874084e-02
-2.631483376026153564e-01 1.841030865907669067e-01 -2.450263593345880508e-03
3.101183772087097168e-01 2.568731606006622314e-01 7.705641537904739380e-02
3.391051590442657471e-01 3.690596520900726318e-01 -4.397756606340408325e-02
2.268659025430679321e-01 -1.915403604507446289e-01 -2.317354269325733185e-02
6.750497967004776001e-02 -1.350282579660415649e-01 -8.273086696863174438e-02
-5.987750291824340820e-01 -3.150419592857360840e-01 2.846913225948810577e-02
9.335405379533767700e-02 -1.040040478110313416e-01 8.605735003948211670e-02
2.576993405818939209e-01 2.322055399417877197e-01 8.164207637310028076e-02
-2.732726186513900757e-02 -1.357257962226867676e-01 -8.992204070091247559e-02
3.613849878311157227e-01 2.320193946361541748e-01 -7.509678602218627930e-02
1.695371717214584351e-01 2.337238639593124390e-01 8.033905178308486938e-02
1.591646671295166016e-02 -1.658952422440052032e-02 -9.737887233495712280e-02
6.398187875747680664e-01 2.652731239795684814e-01 4.041972104460000992e-03
-4.562143981456756592e-01 -3.273854255676269531e-01 5.283087119460105896e-02
-6.061180233955383301e-01 -1.627616435289382935e-01 1.849427819252014160e-02
3.437667191028594971e-01 5.123495939187705517e-04 7.076655328273773193e-02
-2.513367310166358948e-02 -2.684115767478942871e-01 -5.712845176458358765e-02
1.833561658859252930e-01 -5.646829307079315186e-02 -8.311063796281814575e-02
-1.559458076953887939e-01 -1.829183101654052734e-01 8.660867810249328613e-02
-1.362195163965225220e-01 -1.676772721111774445e-02 9.378208220005035400e-02
-2.105697542428970337e-01 1.436730176210403442e-01 5.854052677750587463e-02
3.415739834308624268e-01 -7.477300614118576050e-02 4.969445616006851196e-02
3.181375861167907715e-01 2.668020725250244141e-01 7.525078952312469482e-02
3.924470543861389160e-01 1.891959160566329956e-01 -7.489188015460968018e-02
6.355889439582824707e-01 2.426201999187469482e-01 1.139690261334180832e-02
3.110488355159759521e-01 2.947879433631896973e-01 -6.772526353597640991e-02
2.930973172187805176e-01 -7.616110146045684814e-02 -6.009181588888168335e-02
8.067746460437774658e-02 -2.776845693588256836e-01 -1.510620024055242538e-02
1.458065956830978394e-01 3.721469044685363770e-01 6.760846823453903198e-03
1.333504915237426758e-01 -1.653480082750320435e-01 6.743531674146652222e-02
4.621537029743194580e-01 1.750342398881912231e-01 -6.505251675844192505e-02
-1.590645611286163330e-01 3.930431976914405823e-02 -9.027659893035888672e-02
3.892694711685180664e-01 -1.775933057069778442e-02 5.553793907165527344e-02
-1.102837473154067993e-01 -3.581019937992095947e-01 -1.072354055941104889e-02
4.236838519573211670e-01 2.056092917919158936e-01 7.417076826095581055e-02
2.754769623279571533e-01 1.533165723085403442e-01 -8.610238134860992432e-02
2.028410881757736206e-01 -1.572621166706085205e-01 -5.405190587043762207e-02
-2.655417323112487793e-01 8.999577164649963379e-02 6.342561542987823486e-02
6.176645159721374512e-01 2.414615005254745483e-01 -2.211418189108371735e-02
2.328739035874605179e-03 3.146048784255981445e-01 -2.107973396778106689e-02
-2.531349062919616699e-01 -7.812274992465972900e-02 -9.111896157264709473e-02
-2.314510643482208252e-01 -3.117589652538299561e-01 -6.416780501604080200e-02
3.755897581577301025e-01 1.706118732690811157e-01 -7.715344429016113281e-02
2.775645256042480469e-01 -1.677339822053909302e-01 1.275206450372934341e-02
5.042060017585754395e-01 2.478033602237701416e-01 -5.672878399491310120e-02
-3.708819150924682617e-01 -1.863119304180145264e-01 7.753794640302658081e-02
2.458900064229965210e-01 1.872534900903701782e-01 8.706325292587280273e-02
4.676307737827301025e-01 4.929749667644500732e-02 5.099465698003768921e-02
3.862226009368896484e-01 3.397183418273925781e-01 -5.413124710321426392e-02
2.180011719465255737e-01 -9.414178133010864258e-02 -7.079552859067916870e-02
6.068364903330802917e-02 -2.909997999668121338e-01 4.215515218675136566e-03
-3.014820516109466553e-01 6.601494550704956055e-02 -6.595364958047866821e-02
2.690901458263397217e-01 -1.221936941146850586e-02 -7.841501384973526001e-02
-2.877496182918548584e-01 9.443365037441253662e-02 5.680838972330093384e-02
-5.752260684967041016e-01 -1.634661257266998291e-01 3.578275442123413086e-02
-1.822466403245925903e-01 -8.547151833772659302e-02 9.254669398069381714e-02
2.464098185300827026e-01 6.412538886070251465e-02 -8.807144314050674438e-02
-1.785869449377059937e-01 -1.427521705627441406e-01 9.039115905761718750e-02
-1.284337937831878662e-01 1.528814584016799927e-01 7.133755087852478027e-02
-3.039624691009521484e-01 -4.150700196623802185e-02 -8.424114435911178589e-02
4.163049757480621338e-01 -1.383513025939464569e-02 4.808903858065605164e-02
2.118016779422760010e-01 -5.831967294216156006e-02 8.087867498397827148e-02
-3.232664465904235840e-01 -3.594109714031219482e-01 -5.092202499508857727e-02
2.242242991924285889e-01 1.072345599532127380e-01 -9.031944721937179565e-02
-3.495580852031707764e-01 1.139384955167770386e-01 -2.570561505854129791e-02
-3.739343285560607910e-01 -7.044100016355514526e-02 7.349015772342681885e-02
-1.018282547593116760e-01 -2.922655045986175537e-01 5.791353061795234680e-02
2.064301520586013794e-01 2.999048531055450439e-01 6.606491655111312866e-02
4.760942757129669189e-01 -4.144806414842605591e-03 -1.630731672048568726e-02
2.566561996936798096e-01 -1.504519432783126831e-01 4.250654578208923340e-02
1.951569020748138428e-01 2.903485298156738281e-01 6.823591887950897217e-02
-1.939318627119064331e-01 -1.476686745882034302e-01 8.971817791461944580e-02
5.315226912498474121e-01 2.142394632101058960e-01 5.638020113110542297e-02
-4.657969474792480469e-01 -3.277985453605651855e-01 5.178117752075195312e-02
2.927955090999603271e-01 2.026036381721496582e-01 -8.203023672103881836e-02
-5.357624217867851257e-02 -1.619116812944412231e-01 8.680862188339233398e-02
3.738260641694068909e-02 -2.707522809505462646e-01 4.211582243442535400e-02
-3.204161524772644043e-01 1.253098696470260620e-01 3.016264550387859344e-02
1.819346100091934204e-01 -2.014276683330535889e-01 3.933491185307502747e-02
2.840011119842529297e-01 -6.739149242639541626e-02 6.714393943548202515e-02
-5.737323686480522156e-02 -2.361957132816314697e-01 7.171795517206192017e-02
3.307093381881713867e-01 -2.583511359989643097e-02 -6.488765776157379150e-02
-2.780402004718780518e-01 5.935999378561973572e-02 6.877724081277847290e-02
1.597755700349807739e-01 -1.514680981636047363e-01 -6.573964655399322510e-02
4.232485964894294739e-02 -2.285843789577484131e-01 -6.114377826452255249e-02
-2.997738420963287354e-01 -3.610138595104217529e-01 -4.913682118058204651e-02
3.654653206467628479e-02 -2.647570371627807617e-01 4.595511779189109802e-02
-2.556402683258056641e-01 -2.943364679813385010e-01 -7.018103450536727905e-02
3.854153454303741455e-01 6.499806791543960571e-02 -7.012756913900375366e-02
