3.604816645383834839e-02 1.604069471359252930e-01 -2.176569998264312744e-01
-1.133046820759773254e-01 -1.186449900269508362e-01 3.118243217468261719e-01
-5.975033044815063477e-01 9.205520153045654297e-02 2.887928783893585205e-01
-1.235026344656944275e-01 1.184969916939735413e-01 3.434282839298248291e-01
-5.623776912689208984e-01 -1.002725139260292053e-01 1.953582465648651123e-01
3.461093008518218994e-01 -2.551990747451782227e-02 -3.941324353218078613e-01
-8.335983753204345703e-01 9.571285545825958252e-02 -6.315650045871734619e-02
-1.227784231305122375e-01 -1.562115252017974854e-01 1.677327454090118408e-01
5.354507565498352051e-01 1.475958377122879028e-01 8.374045602977275848e-03
7.090572118759155273e-01 1.066968142986297607e-01 -1.255092024803161621e-01
5.366433262825012207e-01 1.447787433862686157e-01 -6.866360455751419067e-02
1.780517101287841797e-01 -1.689574718475341797e-01 1.247936412692070007e-01
2.860518097877502441e-01 7.945112138986587524e-02 3.751101493835449219e-01
3.912861943244934082e-01 2.894933521747589111e-02 3.991434276103973389e-01
5.305027961730957031e-01 -1.806263811886310577e-03 3.746897578239440918e-01
-4.383346438407897949e-01 1.648540645837783813e-01 -1.164455786347389221e-01
3.424901366233825684e-01 1.667414605617523193e-01 6.970889121294021606e-02
1.997142434120178223e-01 1.769687533378601074e-01 -6.858420372009277344e-02
6.553434729576110840e-01 -1.356569230556488037e-01 -1.076344773173332214e-01
7.891917228698730469e-02 -1.383930742740631104e-01 -2.418852448463439941e-01
-5.464141368865966797e-01 1.607104092836380005e-01 -5.037782713770866394e-02
-6.080133318901062012e-01 1.361954510211944580e-01 -1.519221067428588867e-01
4.083711281418800354e-02 -1.715624481439590454e-01 -4.654837027192115784e-02
-3.938945829868316650e-01 -1.012391299009323120e-01 2.827656567096710205e-01
-4.913797974586486816e-01 1.200763285160064697e-01 -2.554399371147155762e-01
-4.591239690780639648e-01 -8.984283357858657837e-02 -2.453393042087554932e-01
1.712776720523834229e-01 1.454168260097503662e-01 2.590160369873046875e-01
-1.616569235920906067e-02 -1.576065719127655029e-01 1.873237043619155884e-01
-7.919487357139587402e-01 -6.567572057247161865e-02 1.708785630762577057e-02
-4.296386539936065674e-01 1.721413433551788330e-01 -5.648036301136016846e-02
6.934359669685363770e-01 -1.103991046547889709e-01 2.059180140495300293e-01
-2.301206886768341064e-01 1.832631975412368774e-01 -5.704924464225769043e-02
7.027119994163513184e-01 2.023801393806934357e-02 -2.963817715644836426e-01
7.348378896713256836e-01 1.065442264080047607e-01 8.879932016134262085e-02
2.453223168849945068e-01 -1.446824669837951660e-01 2.476783990859985352e-01
8.037093281745910645e-01 6.893986463546752930e-02 -1.674340367317199707e-01
-6.993040442466735840e-02 -9.615121781826019287e-02 3.630278408527374268e-01
-6.314709782600402832e-01 -9.522074460983276367e-02 -1.112013831734657288e-01
7.693507075309753418e-01 1.016437634825706482e-01 5.696534737944602966e-02
1.879304051399230957e-01 -1.358572542667388916e-01 -2.503181695938110352e-01
-3.980688154697418213e-01 1.632964611053466797e-01 -1.468767225742340088e-01
-3.259575963020324707e-01 1.183553487062454224e-01 3.218721151351928711e-01
-1.182237640023231506e-01 1.056075170636177063e-01 -3.506328165531158447e-01
7.423687577247619629e-01 1.036498621106147766e-01 -9.719109535217285156e-02
-9.016478061676025391e-01 6.444805115461349487e-02 5.131696164608001709e-02
4.894604384899139404e-01 -1.401904691010713577e-02 -3.711502552032470703e-01
-2.415729463100433350e-01 1.781506389379501343e-01 1.199429705739021301e-01
-2.283728718757629395e-01 1.775787621736526489e-01 1.280260831117630005e-01
1.935573518276214600e-01 9.277706593275070190e-02 3.711242973804473877e-01
-1.493563055992126465e-01 1.457748711109161377e-01 2.780407369136810303e-01
-3.785015046596527100e-01 -1.395097225904464722e-01 1.327169835567474365e-01
9.514391422271728516e-01 -3.177984431385993958e-02 -1.127354949712753296e-01
6.931341290473937988e-01 7.416826486587524414e-02 2.418708503246307373e-01
1.083418428897857666e-01 1.829808950424194336e-01 4.112986847758293152e-02
-2.879862189292907715e-01 3.292408585548400879e-02 -3.910548090934753418e-01
7.871182635426521301e-03 1.484367400407791138e-01 2.700338363647460938e-01
5.776851177215576172e-01 8.166077733039855957e-02 -2.827326059341430664e-01
-2.120854258537292480e-01 1.199203431606292725e-01 3.345146179199218750e-01
6.408278346061706543e-01 -1.101694107055664062e-01 -2.156533747911453247e-01
-8.645255863666534424e-02 5.175955593585968018e-03 4.393492043018341064e-01
2.248747348785400391e-01 -1.363934278488159180e-01 2.767357528209686279e-01
4.995111525058746338e-01 1.358367651700973511e-01 -1.678753048181533813e-01
2.980503737926483154e-01 -1.696902364492416382e-01 9.170025587081909180e-02
5.754806399345397949e-01 1.359371989965438843e-01 9.904024749994277954e-02
7.283020019531250000e-01 -8.896602690219879150e-02 -2.199855595827102661e-01
5.168609619140625000e-01 -1.597260236740112305e-01 4.066719114780426025e-02
8.810293674468994141e-02 8.763536065816879272e-02 3.885787725448608398e-01
-5.126864910125732422e-01 -1.184721440076828003e-01 1.502489447593688965e-01
5.125882029533386230e-01 -2.805427089333534241e-02 -3.614856004714965820e-01
9.816341102123260498e-02 -1.548353582620620728e-01 2.129890769720077515e-01
3.447277545928955078e-01 1.588050574064254761e-01 -1.379695832729339600e-01
8.223630785942077637e-01 8.757126331329345703e-02 -5.122855678200721741e-02
-1.864442974328994751e-02 -1.641959398984909058e-01 1.437127739191055298e-01
-5.110802054405212402e-01 -1.267516016960144043e-01 8.145554363727569580e-02
-5.301109552383422852e-01 1.577507555484771729e-01 -9.786338359117507935e-02
-7.465940713882446289e-02 1.757899075746536255e-01 -1.476345807313919067e-01
4.579626619815826416e-01 -1.831897720694541931e-02 -3.771046698093414307e-01
-6.566259860992431641e-01 -1.001277193427085876e-01 -3.367510065436363220e-02
3.259884417057037354e-01 1.325544416904449463e-01 2.604121863842010498e-01
-2.289285957813262939e-01 3.263552114367485046e-02 4.236524403095245361e-01
4.779077693819999695e-02 1.733271628618240356e-01 -1.537301689386367798e-01
-5.154793858528137207e-01 -8.727880567312240601e-02 2.641821205615997314e-01
2.627110779285430908e-01 1.665598750114440918e-01 1.332964748144149780e-01
1.105728521943092346e-01 1.811459660530090332e-01 7.360073179006576538e-02
-3.208486437797546387e-01 -1.081549096852540970e-02 -3.812244832515716553e-01
-2.640603110194206238e-02 1.865371912717819214e-01 -2.958173304796218872e-02
-3.789399266242980957e-01 -1.387979686260223389e-01 -9.632640331983566284e-02
3.731409311294555664e-01 1.657619178295135498e-01 -3.472185507416725159e-02
2.714066207408905029e-01 -1.711623817682266235e-01 8.212640136480331421e-02
6.653158068656921387e-01 -3.134050406515598297e-03 3.288186788558959961e-01
1.954908668994903564e-02 -2.938654646277427673e-02 -4.100169241428375244e-01
2.438886761665344238e-01 -1.494237482547760010e-01 2.299335598945617676e-01
1.826394498348236084e-01 1.802024841308593750e-01 -1.507391687482595444e-02
-6.738724112510681152e-01 6.420570611953735352e-02 -2.585772573947906494e-01
-2.079651653766632080e-01 1.803853064775466919e-01 -9.848982840776443481e-02
-2.859001755714416504e-01 -1.474457532167434692e-01 1.456454247236251831e-01
3.566128015518188477e-01 -1.676497012376785278e-01 8.850114047527313232e-02
-1.017499715089797974e-03 -1.715998053550720215e-01 6.216022744774818420e-02
8.217709660530090332e-01 8.556729555130004883e-02 -7.144018262624740601e-02
8.789124488830566406e-01 7.015244662761688232e-02 -2.923540398478507996e-02
-9.580332785844802856e-02 -1.108533218502998352e-01 3.321539461612701416e-01
9.871973395347595215e-01 -1.122315507382154465e-02 4.068756848573684692e-02
-6.432338953018188477e-01 1.481066048145294189e-01 -3.109446913003921509e-02
2.797443233430385590e-02 1.704383492469787598e-01 1.797234416007995605e-01
-8.577430248260498047e-01 9.742366150021553040e-03 -1.338561326265335083e-01
-1.600439250469207764e-01 -8.318579941987991333e-02 -3.406809568405151367e-01
-5.948396325111389160e-01 1.542526930570602417e-01 -5.066585540771484375e-02
7.755663394927978516e-01 9.346301108598709106e-02 -1.072024330496788025e-01
6.250859797000885010e-02 1.713615655899047852e-01 -1.630024462938308716e-01
-2.473454922437667847e-02 -1.275048404932022095e-01 2.999078333377838135e-01
3.215045630931854248e-01 -1.663910746574401855e-01 -8.739183843135833740e-02
-7.751062512397766113e-01 1.167447045445442200e-01 -5.881822854280471802e-02
9.235446155071258545e-02 -1.382999122142791748e-01 -2.427619695663452148e-01
-3.476377725601196289e-01 -1.316681206226348877e-01 -1.597713679075241089e-01
-5.314492583274841309e-01 8.339862339198589325e-03 -3.313658535480499268e-01
1.293156743049621582e-01 1.827122569084167480e-01 -1.627752557396888733e-02
-2.096421718597412109e-01 -1.607031524181365967e-01 -2.845056727528572083e-02
3.432815968990325928e-01 1.646399348974227905e-01 9.383201599121093750e-02
5.311289429664611816e-01 -1.584414839744567871e-01 -1.479200553148984909e-02
2.896581292152404785e-01 1.143423542380332947e-01 -3.090966939926147461e-01
4.374580979347229004e-01 -2.634516358375549316e-02 3.951004445552825928e-01
2.762799561023712158e-01 5.794737115502357483e-02 3.997455239295959473e-01
-8.140510320663452148e-01 5.014390870928764343e-02 2.091400623321533203e-01
5.252732634544372559e-01 9.299436211585998535e-02 -2.830246984958648682e-01
-2.893345952033996582e-01 -1.170912608504295349e-01 2.761643528938293457e-01
-1.066379472613334656e-01 -1.577279716730117798e-01 -1.254215836524963379e-01
2.517725527286529541e-01 5.268493294715881348e-02 -3.946019411087036133e-01
-6.594390869140625000e-01 9.754694998264312744e-02 -2.239493429660797119e-01
-4.238709509372711182e-01 1.196255981922149658e-01 2.977808117866516113e-01
5.901113897562026978e-02 1.852340400218963623e-01 -1.323943492025136948e-02
-2.037516534328460693e-01 -1.125176250934600830e-01 -2.744235098361968994e-01
-2.374120056629180908e-01 1.295098662376403809e-01 -2.961431741714477539e-01
-7.810252308845520020e-01 1.166147664189338684e-01 7.293804734945297241e-02
-3.729661703109741211e-01 -9.776131063699722290e-02 2.986263930797576904e-01
-8.496563434600830078e-01 -1.810383051633834839e-02 -1.076921075582504272e-01
-2.105235159397125244e-01 8.116146177053451538e-02 3.920418322086334229e-01
7.014115452766418457e-01 7.100063562393188477e-02 -2.400354444980621338e-01
-1.453202962875366211e-02 -4.137065634131431580e-02 4.274488389492034912e-01
7.120788097381591797e-01 9.120008349418640137e-02 -1.842424869537353516e-01
7.329667210578918457e-01 2.925626188516616821e-02 2.820482254028320312e-01
9.811968356370925903e-02 -1.272896230220794678e-01 -2.751209735870361328e-01
-5.907555818557739258e-01 -7.808849960565567017e-02 2.450998127460479736e-01
2.489250004291534424e-01 -3.902278840541839600e-02 4.193071722984313965e-01
-1.118465438485145569e-01 1.337115168571472168e-01 -2.986364066600799561e-01
-5.091385841369628906e-01 1.416814476251602173e-01 2.087026089429855347e-01
3.759396374225616455e-01 -1.675908565521240234e-01 -4.628683254122734070e-02
-5.880956649780273438e-01 -4.940142109990119934e-02 3.003735840320587158e-01
-6.230651736259460449e-01 -3.000769764184951782e-02 3.068192005157470703e-01
-6.230482459068298340e-01 1.801175810396671295e-02 3.300590515136718750e-01
-2.397513091564178467e-01 -5.488551035523414612e-02 3.958991169929504395e-01
-7.578008174896240234e-01 -7.656837254762649536e-02 2.532891556620597839e-02
-6.567439436912536621e-01 -7.811573147773742676e-02 1.975391656160354614e-01
-1.975159049034118652e-01 1.192065328359603882e-01 3.372582197189331055e-01
-6.481627225875854492e-01 1.401006579399108887e-01 -9.744590520858764648e-02
-1.948989629745483398e-01 1.813463568687438965e-01 1.028284952044487000e-01
9.084284305572509766e-01 -8.650532364845275879e-02 -1.860063895583152771e-02
1.326379925012588501e-01 4.894183948636054993e-02 4.227801561355590820e-01
-6.900557279586791992e-01 1.395832896232604980e-01 -3.189289569854736328e-02
7.248271703720092773e-01 -1.122776195406913757e-01 1.785378754138946533e-01
2.751661241054534912e-01 -1.666276603937149048e-01 1.299392133951187134e-01
-8.914766907691955566e-01 -2.929571084678173065e-03 1.042607277631759644e-01
5.824753642082214355e-01 1.311760246753692627e-01 -1.252233833074569702e-01
5.734126567840576172e-01 1.167818605899810791e-01 -1.982534080743789673e-01
-6.487770080566406250e-01 8.870758861303329468e-02 2.705938816070556641e-01
-4.351793825626373291e-01 1.561749428510665894e-01 -1.656078547239303589e-01
7.135129570960998535e-01 1.046116724610328674e-01 1.308667510747909546e-01
-7.331272959709167480e-01 -8.164371550083160400e-02 -2.776650711894035339e-02
-4.631797969341278076e-01 -1.255848556756973267e-01 1.532434672117233276e-01
6.762377023696899414e-01 -9.266776591539382935e-02 -2.392677962779998779e-01
5.492085814476013184e-01 -1.510372161865234375e-01 -8.986353129148483276e-02
3.926156163215637207e-01 1.220864579081535339e-01 -2.642175555229187012e-01
9.716667979955673218e-02 1.837648749351501465e-01 2.972105145454406738e-02
-7.255490869283676147e-03 1.839840859174728394e-01 7.927745580673217773e-02
-1.315708756446838379e-01 -1.022212058305740356e-01 3.450124859809875488e-01
1.283507049083709717e-01 -1.088265795260667801e-03 -4.187422096729278564e-01
-4.121644198894500732e-01 -1.346012949943542480e-01 1.390318572521209717e-01
-8.075798153877258301e-01 1.102117970585823059e-01 -2.775673568248748779e-02
8.832510709762573242e-01 -8.160150051116943359e-02 -1.071411818265914917e-01
7.467675209045410156e-01 8.961004018783569336e-02 1.592947393655776978e-01
2.514982223510742188e-01 6.720345467329025269e-02 3.946627676486968994e-01
8.226255327463150024e-02 -1.129564866423606873e-01 3.395071625709533691e-01
3.367293775081634521e-01 1.053751856088638306e-01 -3.164711296558380127e-01
5.638605952262878418e-01 -1.121774464845657349e-01 -2.423664331436157227e-01
-7.983680367469787598e-01 2.602078020572662354e-02 2.313703149557113647e-01
9.502691030502319336e-01 -5.034542456269264221e-02 9.634362161159515381e-02
9.376091882586479187e-03 1.575899422168731689e-01 2.387448102235794067e-01
-2.044853866100311279e-01 -1.446108967065811157e-01 2.025652527809143066e-01
2.354051768779754639e-01 -1.372104287147521973e-01 -2.434132397174835205e-01
-3.530257642269134521e-01 1.478574126958847046e-01 -2.254411280155181885e-01
5.403510928153991699e-01 1.300609707832336426e-01 1.678029745817184448e-01
-1.616726815700531006e-01 1.447282582521438599e-01 2.802592813968658447e-01
3.357729613780975342e-01 1.630985289812088013e-01 1.142508834600448608e-01
1.854500174522399902e-01 -1.742926985025405884e-01 -1.198959257453680038e-02
4.178870022296905518e-01 1.204994097352027893e-01 2.639434933662414551e-01
6.327509284019470215e-01 -1.020273938775062561e-01 2.584701776504516602e-01
-1.667607128620147705e-01 1.668058484792709351e-01 2.004027366638183594e-01
-1.247806325554847717e-01 1.846219450235366821e-01 7.714637368917465210e-02
-5.225761532783508301e-01 -1.251341700553894043e-01 -3.584945201873779297e-02
7.273491024971008301e-01 -1.291117221117019653e-01 9.091360867023468018e-02
2.853196263313293457e-01 9.160420298576354980e-02 -3.492041826248168945e-01
2.988570034503936768e-01 1.727811247110366821e-01 -8.593481034040451050e-04
6.205546259880065918e-01 7.248812168836593628e-02 2.838010787963867188e-01
-7.873319834470748901e-02 1.868223547935485840e-01 3.817030042409896851e-02
9.356443881988525391e-01 -7.341812551021575928e-02 -2.866445109248161316e-02
-4.207298159599304199e-01 -1.408763378858566284e-01 5.102012306451797485e-02
9.083163142204284668e-01 -7.321760803461074829e-02 1.093957573175430298e-01
6.621649861335754395e-02 1.839989125728607178e-01 5.116594955325126648e-02
-4.170799553394317627e-01 1.445303857326507568e-01 -2.167797684669494629e-01
8.836856484413146973e-02 1.501912623643875122e-01 -2.490652203559875488e-01
-5.114921331405639648e-01 1.583004444837570190e-01 -1.096063330769538879e-01
-3.878595530986785889e-01 -1.370284259319305420e-01 1.431037187576293945e-01
8.595654964447021484e-01 5.329740419983863831e-02 -1.485683917999267578e-01
4.006964340806007385e-02 1.014908403158187866e-01 -3.589923977851867676e-01
3.389272093772888184e-01 -1.691232025623321533e-01 7.863298058509826660e-02
3.771515488624572754e-01 1.156668141484260559e-01 -2.847832441329956055e-01
5.970736145973205566e-01 1.357999891042709351e-01 -6.658275425434112549e-02
7.578637003898620605e-01 2.814687415957450867e-02 -2.633735835552215576e-01
5.962482690811157227e-01 -5.581437051296234131e-02 -3.203967511653900146e-01
-3.825872540473937988e-01 -2.471860125660896301e-02 3.916642367839813232e-01
3.502039909362792969e-01 -4.638287052512168884e-02 -3.821218013763427734e-01
-4.176434576511383057e-01 1.269730925559997559e-01 -2.639813125133514404e-01
-8.737584948539733887e-01 7.768880575895309448e-02 8.435056358575820923e-02
1.379074901342391968e-01 1.299046128988265991e-01 -2.994066178798675537e-01
2.778225541114807129e-01 1.738593876361846924e-01 -3.069038689136505127e-02
4.876375570893287659e-02 -1.564590185880661011e-01 2.021154910326004028e-01
-3.484359681606292725e-01 1.353702321648597717e-02 4.091816246509552002e-01
5.833773612976074219e-01 1.399551182985305786e-01 -3.354872018098831177e-02
-3.037093281745910645e-01 -5.997157096862792969e-02 -3.455991148948669434e-01
9.179133176803588867e-02 -1.718095242977142334e-01 9.155252575874328613e-02
6.398769021034240723e-01 1.230317801237106323e-01 1.128678843379020691e-01
-8.694328069686889648e-01 6.716058403253555298e-02 -9.161517769098281860e-02
8.012018203735351562e-01 -1.090817376971244812e-01 -1.001821681857109070e-01
-4.119285345077514648e-01 1.408013999462127686e-01 -2.299361526966094971e-01
-3.544507622718811035e-01 -1.305412352085113525e-01 2.016655653715133667e-01
-3.300087749958038330e-01 1.678286790847778320e-01 -1.489705741405487061e-01
8.544243574142456055e-01 -7.799401134252548218e-02 -1.512445658445358276e-01
-2.762027978897094727e-01 -1.546284407377243042e-01 -4.097120463848114014e-02
-7.958365082740783691e-01 1.071090102195739746e-01 -7.773409783840179443e-02
-3.229899406433105469e-01 1.544599533081054688e-01 -2.106704413890838623e-01
5.342027544975280762e-01 -1.504509150981903076e-01 -1.055310666561126709e-01
-3.419970273971557617e-01 1.709440946578979492e-01 1.391644626855850220e-01
4.781127572059631348e-01 -8.454177528619766235e-02 3.398346900939941406e-01
-8.830355107784271240e-02 -2.715843170881271362e-02 -4.054449200630187988e-01
-4.672612547874450684e-01 -1.341421008110046387e-01 6.565317511558532715e-02
8.846550583839416504e-01 -7.150601595640182495e-02 -1.345681846141815186e-01
-9.123202562332153320e-01 2.153049781918525696e-02 -4.798691719770431519e-02
7.538622617721557617e-01 1.470163743942975998e-02 -2.740682959556579590e-01
6.654579937458038330e-02 9.421242028474807739e-02 -3.681642711162567139e-01
8.393979072570800781e-01 -3.384392336010932922e-02 2.320719063282012939e-01
2.496855556964874268e-01 1.285262256860733032e-01 -2.850951254367828369e-01
8.299596607685089111e-02 -5.603811144828796387e-02 -3.918805420398712158e-01
-2.170075178146362305e-01 -1.333897709846496582e-01 2.455135583877563477e-01
8.704107403755187988e-01 4.043468087911605835e-02 1.667339801788330078e-01
-7.548003643751144409e-02 -1.697139739990234375e-01 1.309050247073173523e-02
2.618096470832824707e-01 1.653863191604614258e-01 -1.389045715332031250e-01
2.809191048145294189e-01 -1.426652371883392334e-01 -2.207846641540527344e-01
-8.124678134918212891e-01 -8.565757423639297485e-03 2.037072628736495972e-01
6.002105474472045898e-01 -2.788049727678298950e-02 3.506413698196411133e-01
3.952023088932037354e-01 -1.612429767847061157e-01 -1.025931388139724731e-01
4.176406860351562500e-01 1.616817861795425415e-01 -2.256376296281814575e-02
6.352997422218322754e-01 4.308381676673889160e-02 3.157618045806884766e-01
1.579306125640869141e-01 1.814927458763122559e-01 -1.196524035185575485e-02
7.766758799552917480e-01 7.573986798524856567e-02 1.755786091089248657e-01
5.720373988151550293e-01 2.341870591044425964e-02 -3.444551229476928711e-01
2.974119484424591064e-01 1.728429943323135376e-01 1.098956726491451263e-02
3.007379472255706787e-01 1.795060932636260986e-02 4.193024039268493652e-01
4.508140981197357178e-01 -1.449980884790420532e-01 2.010909616947174072e-01
8.372767567634582520e-01 -1.090759038925170898e-01 -2.743875980377197266e-02
-5.402469635009765625e-01 -1.110665127635002136e-01 -1.233783438801765442e-01
2.563480734825134277e-01 -1.468320637941360474e-01 2.385188043117523193e-01
5.150887370109558105e-01 -1.594761013984680176e-01 5.159876495599746704e-02
-3.445108234882354736e-01 1.362912952899932861e-01 2.775971889495849609e-01
3.883438110351562500e-01 -1.533136516809463501e-01 1.832767128944396973e-01
4.038779139518737793e-01 -1.079524531960487366e-01 3.184968829154968262e-01
5.014545917510986328e-01 -1.563281714916229248e-01 -8.196294307708740234e-02
-5.816251039505004883e-01 1.293711513280868530e-01 -1.920529007911682129e-01
5.509995818138122559e-01 1.013814583420753479e-01 2.575456798076629639e-01
2.267517447471618652e-01 1.776909530162811279e-01 1.653932407498359680e-02
-4.022269248962402344e-01 1.637691259384155273e-01 1.580114364624023438e-01
-2.886594533920288086e-01 9.072624146938323975e-02 3.715768158435821533e-01
5.386574268341064453e-01 1.457556635141372681e-01 4.991373419761657715e-02
3.376419246196746826e-01 1.109605282545089722e-01 3.117649853229522705e-01
-2.661643028259277344e-01 -3.326064720749855042e-02 -3.788371086120605469e-01
7.898289710283279419e-02 1.696533262729644775e-01 -1.697642654180526733e-01
-6.887072920799255371e-01 2.556797116994857788e-02 -2.667111456394195557e-01
3.100558221340179443e-01 1.690048128366470337e-01 7.634295523166656494e-02
-5.451068282127380371e-01 6.395197659730911255e-02 -3.133756816387176514e-01
3.738270103931427002e-01 1.653747260570526123e-01 4.361937567591667175e-02
3.349281847476959229e-02 -1.715656667947769165e-01 8.040931820869445801e-02
1.427900195121765137e-01 1.804046481847763062e-01 -6.003762036561965942e-02
-3.167937994003295898e-01 7.066562026739120483e-02 3.889867961406707764e-01
3.455345705151557922e-02 -1.413580775260925293e-01 2.628909647464752197e-01
-5.423099398612976074e-01 -9.512329101562500000e-02 -1.865915060043334961e-01
1.084461063146591187e-01 1.079199537634849548e-01 -3.455232679843902588e-01
-8.283819556236267090e-01 5.923021957278251648e-02 -1.546696275472640991e-01
1.107638925313949585e-01 -1.229311600327491760e-01 -2.865301668643951416e-01
7.060338258743286133e-01 -1.362890303134918213e-01 -2.924465760588645935e-02
-3.506613969802856445e-01 -1.489348709583282471e-01 -8.769168518483638763e-03
6.576535105705261230e-01 -1.443089991807937622e-01 3.250854462385177612e-02
6.729082465171813965e-01 1.188216209411621094e-01 -9.798918664455413818e-02
-5.453080683946609497e-02 -1.481439918279647827e-01 2.264287322759628296e-01
-8.115084171295166016e-01 -2.300106734037399292e-02 1.854749917984008789e-01
9.049955606460571289e-01 5.610554292798042297e-02 6.083583086729049683e-02
-3.371529281139373779e-01 1.101782470941543579e-01 3.348717689514160156e-01
5.176932215690612793e-01 -1.488909963518381119e-02 -3.641712069511413574e-01
-4.979304075241088867e-01 9.858073294162750244e-02 -2.916792333126068115e-01
2.982490360736846924e-01 -1.648539453744888306e-01 1.383075416088104248e-01
2.437455058097839355e-01 1.589698344469070435e-01 -1.823942810297012329e-01
-8.754842877388000488e-01 7.972576469182968140e-02 -3.763769567012786865e-02
-5.178443789482116699e-01 1.660355329513549805e-01 2.239541523158550262e-02
2.930608093738555908e-01 1.717768907546997070e-01 -5.265288800001144409e-02
-3.443247377872467041e-01 -1.194802597165107727e-01 2.492412477731704712e-01
-4.690067768096923828e-01 1.448861360549926758e-01 2.144859284162521362e-01
5.450428724288940430e-01 -1.465743929147720337e-01 -1.237626895308494568e-01
-5.367256999015808105e-01 -4.863982275128364563e-02 -2.870241999626159668e-01
4.762166142463684082e-01 5.406771972775459290e-02 3.603112697601318359e-01
-1.451172530651092529e-01 9.151437878608703613e-02 -3.677080571651458740e-01
-1.621460169553756714e-02 -1.599497497081756592e-01 1.736044883728027344e-01
-2.012602984905242920e-01 1.837242394685745239e-01 7.266737520694732666e-02
-4.514738023281097412e-01 -1.367724537849426270e-01 -1.216222625225782394e-02
-6.828455328941345215e-01 -1.561385300010442734e-02 2.891089618206024170e-01
3.610612750053405762e-01 1.604970097541809082e-01 -1.148361787199974060e-01
4.467761218547821045e-01 -1.473680883646011353e-01 -1.652078032493591309e-01
-1.630261838436126709e-01 1.829168647527694702e-01 9.271859377622604370e-02
7.263587117195129395e-01 1.114688664674758911e-01 -6.261768192052841187e-02
6.458573341369628906e-01 -9.329272806644439697e-02 -2.515797019004821777e-01
-1.787502691149711609e-02 -1.691063344478607178e-01 9.546705335378646851e-02
5.709298849105834961e-01 -8.576395362615585327e-02 3.111373484134674072e-01
-5.256765484809875488e-01 3.219246864318847656e-02 3.633835017681121826e-01
-8.096951246261596680e-01 1.054390519857406616e-01 -6.040511280298233032e-02
7.868520021438598633e-01 9.968166798353195190e-02 -4.041310399770736694e-03
9.714731574058532715e-01 -3.766036406159400940e-02 7.314184308052062988e-02
8.352649807929992676e-01 8.383750915527343750e-02 -4.828638583421707153e-02
6.205551028251647949e-01 3.578155115246772766e-02 3.282869160175323486e-01
3.325642645359039307e-01 8.855090290307998657e-02 -3.448917269706726074e-01
6.149832606315612793e-01 3.128147451207041740e-03 -3.363137245178222656e-01
3.543953001499176025e-01 6.184732541441917419e-02 3.821278512477874756e-01
6.608216762542724609e-01 9.842567145824432373e-02 2.020075768232345581e-01
3.659607842564582825e-02 1.775906682014465332e-01 -1.267559528350830078e-01
5.668224096298217773e-01 6.675544381141662598e-02 -3.094510138034820557e-01
-9.700057655572891235e-02 1.572602540254592896e-01 -2.324444353580474854e-01
-8.548844456672668457e-01 6.745612621307373047e-02 1.452531516551971436e-01
8.414583206176757812e-01 -8.188281953334808350e-02 1.679662019014358521e-01
9.197327494621276855e-02 1.173557266592979431e-01 -3.300546705722808838e-01
6.987417340278625488e-01 6.022305041551589966e-02 2.636075615882873535e-01
-7.783935964107513428e-02 3.573606535792350769e-02 4.336426854133605957e-01
-4.412545561790466309e-01 1.675583124160766602e-01 -9.415183216333389282e-02
6.872622370719909668e-01 1.145493686199188232e-01 -1.073350384831428528e-01
7.686740756034851074e-01 8.160543441772460938e-02 1.652113646268844604e-01
2.648850083351135254e-01 1.189408972859382629e-01 3.114285171031951904e-01
-6.417943239212036133e-01 -7.271356880664825439e-02 -1.842649877071380615e-01
2.478610873222351074e-01 1.672723740339279175e-01 -1.326112449169158936e-01
-3.906853497028350830e-01 1.179122701287269592e-01 -2.900969982147216797e-01
-4.950063228607177734e-01 -1.274988353252410889e-01 -5.906387418508529663e-02
5.376151204109191895e-01 -1.476991325616836548e-01 1.466377973556518555e-01
2.438226044178009033e-01 -1.719963997602462769e-01 -4.631787165999412537e-02
7.108778953552246094e-01 -9.977898001670837402e-02 -2.056085318326950073e-01
1.259146481752395630e-01 1.801299750804901123e-01 7.895410805940628052e-02
-8.274223804473876953e-01 -4.630790278315544128e-02 9.433052688837051392e-02
5.074065327644348145e-01 1.268098503351211548e-01 2.027216106653213501e-01
7.629026174545288086e-01 9.781800955533981323e-02 -1.015096530318260193e-01
7.600754499435424805e-01 5.238814651966094971e-02 -2.348632663488388062e-01
-7.765896916389465332e-01 1.180162951350212097e-01 -4.508328810334205627e-02
2.109226584434509277e-01 1.437956541776657104e-01 2.559736371040344238e-01
-6.324557662010192871e-01 -8.434370905160903931e-02 -1.558978408575057983e-01
8.247299194335937500e-01 -1.052803769707679749e-01 -8.754406124353408813e-02
3.657582998275756836e-01 4.987273365259170532e-02 -3.794885277748107910e-01
5.151388049125671387e-01 1.373659670352935791e-01 1.497514992952346802e-01
3.676084280014038086e-01 -1.665331125259399414e-01 9.583403170108795166e-02
6.400918364524841309e-01 1.167446002364158630e-01 1.482919156551361084e-01
-6.904730945825576782e-02 1.806789636611938477e-01 1.202198043465614319e-01
4.214057624340057373e-01 -4.107467457652091980e-02 3.922934234142303467e-01
3.011134266853332520e-02 4.929958283901214600e-02 4.273479282855987549e-01
-2.477604895830154419e-03 -1.600026637315750122e-01 1.758828908205032349e-01
-5.599772930145263672e-01 1.522106118500232697e-02 -3.224736750125885010e-01
-4.927140474319458008e-01 -1.026163324713706970e-01 -1.925941705703735352e-01
-4.603612124919891357e-01 7.429736852645874023e-02 -3.314170837402343750e-01
-9.038408398628234863e-01 5.421977955847978592e-03 -5.120365694165229797e-02
-5.286663174629211426e-01 -1.667479798197746277e-02 3.550299108028411865e-01
-2.913704514503479004e-01 -8.885598182678222656e-02 3.398924767971038818e-01
7.576087713241577148e-01 7.632197439670562744e-02 -1.893056780099868774e-01
3.967374265193939209e-01 6.010624766349792480e-02 3.746770024299621582e-01
-4.067149460315704346e-01 -5.575346201658248901e-02 3.587597310543060303e-01
-4.268905818462371826e-01 -9.590309113264083862e-02 -2.444000244140625000e-01
5.562707781791687012e-01 -1.456163227558135986e-01 -1.224976256489753723e-01
-5.819553136825561523e-01 1.343044936656951904e-01 -1.758828759193420410e-01
-2.889948189258575439e-01 -1.495804488658905029e-01 1.262049973011016846e-01
1.591518223285675049e-01 1.815263181924819946e-01 9.244810789823532104e-04
-1.345808506011962891e-01 -1.654285192489624023e-01 7.108297199010848999e-02
-1.300013065338134766e-01 -1.414224058389663696e-01 2.384018003940582275e-01
6.455497145652770996e-01 -5.000626295804977417e-02 -3.085549771785736084e-01
8.880892395973205566e-02 -1.234933659434318542e-01 -2.846552133560180664e-01
1.718570291996002197e-01 1.805805861949920654e-01 -2.375851571559906006e-02
-2.702047526836395264e-01 1.703612953424453735e-01 1.656294614076614380e-01
1.217692159116268158e-02 1.810742020606994629e-01 1.079992204904556274e-01
1.856949627399444580e-01 -1.321752965450286865e-01 -2.612471282482147217e-01
-6.922587752342224121e-01 1.091877743601799011e-01 2.044415622949600220e-01
-4.440416693687438965e-01 -1.301589906215667725e-01 -9.884893894195556641e-02
-6.323663592338562012e-01 1.468946188688278198e-01 -6.733413785696029663e-02
-8.721017837524414062e-01 5.348377674818038940e-02 -1.090630069375038147e-01
-4.555336534976959229e-01 -1.327867805957794189e-01 -6.332597881555557251e-02
-2.880874872207641602e-01 8.996860682964324951e-02 -3.526934981346130371e-01
-3.967280089855194092e-01 1.427906006574630737e-01 2.460826039314270020e-01
4.610350728034973145e-01 1.061750352382659912e-01 2.839531004428863525e-01
-6.766225695610046387e-01 5.171531438827514648e-02 -2.657412886619567871e-01
4.746561348438262939e-01 1.218479424715042114e-01 2.365479618310928345e-01
-4.726882576942443848e-01 -1.104539260268211365e-01 2.176208198070526123e-01
-4.829635024070739746e-01 -7.575006037950515747e-02 -2.654646337032318115e-01
-2.235124707221984863e-01 1.482122391462326050e-01 2.640648186206817627e-01
3.863656818866729736e-01 1.421343237161636353e-01 2.042941749095916748e-01
-2.652823626995086670e-01 1.780588626861572266e-01 1.132709830999374390e-01
-4.040110111236572266e-01 1.535268574953079224e-01 -1.893705576658248901e-01
-9.140352606773376465e-01 8.828593418002128601e-03 6.250271946191787720e-02
-1.016986742615699768e-01 8.751428127288818359e-02 -3.751671910285949707e-01
8.067445755004882812e-01 1.989347860217094421e-02 2.455663830041885376e-01
4.598751664161682129e-01 2.415725588798522949e-02 3.860147893428802490e-01
5.965698361396789551e-01 -1.015899479389190674e-01 -2.544709146022796631e-01
2.104230225086212158e-01 -9.112276136875152588e-02 -3.465711474418640137e-01
1.405157335102558136e-02 -1.271331161260604858e-01 3.040593564510345459e-01
-3.572662770748138428e-01 -4.668987914919853210e-02 -3.477915227413177490e-01
7.265929579734802246e-01 1.140404343605041504e-01 -1.332618203014135361e-02
1.945899426937103271e-01 -1.134475097060203552e-01 -3.069266378879547119e-01
-4.740518331527709961e-01 6.321105360984802246e-02 3.621383607387542725e-01
3.016903400421142578e-01 5.660509690642356873e-02 3.968395292758941650e-01
4.980276226997375488e-01 1.338235884904861450e-01 1.794592738151550293e-01
-2.617932260036468506e-01 -4.492101818323135376e-02 -3.701218664646148682e-01
6.785948872566223145e-01 -1.196756288409233093e-01 -1.653228700160980225e-01
2.226766347885131836e-01 -1.450413167476654053e-01 -2.178315520286560059e-01
8.474520444869995117e-01 -1.066295057535171509e-01 3.741596639156341553e-02
8.767347931861877441e-01 -9.327171742916107178e-02 -6.424147635698318481e-02
4.477016925811767578e-01 1.486027836799621582e-01 1.353861391544342041e-01
5.241432413458824158e-02 -7.402660325169563293e-03 4.408290684223175049e-01
-9.178375601768493652e-01 1.019115000963211060e-02 4.537088051438331604e-02
3.696947693824768066e-01 -1.693821996450424194e-01 -1.474889647215604782e-02
3.413065671920776367e-01 1.673156917095184326e-01 -6.132646650075912476e-02
5.549392700195312500e-01 1.365660130977630615e-01 1.184209063649177551e-01
-3.657863438129425049e-01 -1.475227624177932739e-01 -8.469037711620330811e-04
-1.866926252841949463e-01 1.683045625686645508e-01 1.911792308092117310e-01
3.565213978290557861e-01 3.631536290049552917e-02 4.019489586353302002e-01
8.373277187347412109e-01 8.095088601112365723e-02 6.863387674093246460e-02
-5.500499606132507324e-01 -9.804920852184295654e-02 2.125724405050277710e-01
9.320990741252899170e-02 -1.704093813896179199e-01 -7.343465834856033325e-02
4.150454401969909668e-01 -1.239262446761131287e-01 -2.550113499164581299e-01
-1.460071206092834473e-01 1.542858034372329712e-01 2.514687776565551758e-01
-1.937445104122161865e-01 -1.615734100341796875e-01 7.367862761020660400e-02
2.292886972427368164e-01 -1.127462014555931091e-01 -3.064920008182525635e-01
-9.951273351907730103e-02 -1.447483003139495850e-01 2.318731099367141724e-01
-3.502779901027679443e-01 -1.473784148693084717e-01 -4.146769270300865173e-02
9.495020508766174316e-01 -1.740759238600730896e-02 -1.227665022015571594e-01
1.032575443387031555e-01 -4.168595001101493835e-02 -4.032777249813079834e-01
2.277868092060089111e-01 -1.665071398019790649e-01 -1.073961928486824036e-01
-4.920464009046554565e-03 1.253021508455276489e-02 -4.198573827743530273e-01
-6.662974357604980469e-01 1.448612809181213379e-01 -1.585646346211433411e-02
4.677430987358093262e-01 1.380774825811386108e-01 1.789787262678146362e-01
-8.664544224739074707e-01 -2.854500710964202881e-02 8.322085440158843994e-02
4.935470521450042725e-01 1.379920691251754761e-01 1.625128239393234253e-01
6.177656054496765137e-01 -1.411687433719635010e-01 1.283491104841232300e-01
-5.848705172538757324e-01 1.306787133216857910e-01 2.081039845943450928e-01
-1.304006576538085938e-01 1.085027307271957397e-01 3.608142137527465820e-01
-5.536079406738281250e-01 -8.097289502620697021e-02 2.594924867153167725e-01
4.703564941883087158e-02 1.105647087097167969e-01 -3.445711731910705566e-01
6.460464596748352051e-01 -8.072104305028915405e-02 -2.731113433837890625e-01
-2.977353036403656006e-01 1.298870891332626343e-01 3.022335767745971680e-01
-2.262146472930908203e-01 -1.466988176107406616e-01 -1.436039507389068604e-01
1.550141274929046631e-01 -1.059593856334686279e-01 3.519233763217926025e-01
-7.447225451469421387e-01 1.119700521230697632e-01 1.516810059547424316e-01
-2.986422479152679443e-01 -8.444710075855255127e-02 -3.105440437793731689e-01
8.407593369483947754e-01 -4.574741050601005554e-02 2.232121974229812622e-01
-3.439881503582000732e-01 -2.131875976920127869e-02 -3.711528182029724121e-01
9.145414233207702637e-01 2.577240392565727234e-02 -1.376421153545379639e-01
-2.643354237079620361e-01 5.973748862743377686e-02 -3.832057416439056396e-01
-4.778108000755310059e-01 -1.322666108608245850e-01 -2.994023263454437256e-02
-3.821104764938354492e-01 -1.358847618103027344e-01 1.555055975914001465e-01
-5.028800964355468750e-01 -9.306272119283676147e-02 2.557274401187896729e-01
6.400217860937118530e-02 -1.799539476633071899e-02 4.384938776493072510e-01
2.344148606061935425e-02 -3.178767859935760498e-02 4.334875941276550293e-01
-9.948330372571945190e-02 1.844892799854278564e-01 8.072936534881591797e-02
3.791672363877296448e-02 -1.016939729452133179e-01 3.600254356861114502e-01
9.471325874328613281e-01 2.965258061885833740e-02 7.355495542287826538e-02
2.759582400321960449e-01 -9.380219876766204834e-02 3.628355562686920166e-01
-3.461887240409851074e-01 1.361870318651199341e-01 -2.605254948139190674e-01
6.040855050086975098e-01 1.188552379608154297e-01 1.698032617568969727e-01
9.369136691093444824e-01 3.793372586369514465e-02 6.794706732034683228e-02
3.426660001277923584e-01 8.524447679519653320e-02 3.560351431369781494e-01
2.489343583583831787e-01 -1.400822550058364868e-01 2.629122436046600342e-01
-6.526470184326171875e-01 -4.090546444058418274e-02 2.789484262466430664e-01
-5.934059619903564453e-01 1.568180322647094727e-01 1.475740969181060791e-02
9.628400802612304688e-01 -5.414163321256637573e-02 -4.284146055579185486e-02
5.085785388946533203e-01 1.013028696179389954e-01 -2.724448442459106445e-01
9.648897051811218262e-01 -1.993232965469360352e-02 -9.692713618278503418e-02
1.954225897789001465e-01 -1.682306230068206787e-01 -9.647297114133834839e-02
-2.631910741329193115e-01 -9.925170987844467163e-02 -2.906818389892578125e-01
-2.387423515319824219e-01 7.523921132087707520e-02 -3.749431073665618896e-01
-3.360944390296936035e-01 -9.510656446218490601e-02 3.160312771797180176e-01
-6.754706501960754395e-01 1.388903558254241943e-01 -6.972583383321762085e-02
-2.062522247433662415e-02 -8.066966384649276733e-02 3.896633684635162354e-01
5.841929316520690918e-01 1.348665803670883179e-01 -9.666483104228973389e-02
3.441514372825622559e-01 1.677181720733642578e-01 -5.016315355896949768e-02
7.719145417213439941e-01 -1.243860796093940735e-01 -2.716526016592979431e-02
7.016006708145141602e-01 1.181851401925086975e-01 4.310157522559165955e-02
-3.872760236263275146e-01 -1.281663328409194946e-01 1.943054497241973877e-01
-5.318382382392883301e-01 -1.255994737148284912e-01 1.442485861480236053e-02
-8.949881047010421753e-02 -5.817479640245437622e-02 4.103831052780151367e-01
-3.144689798355102539e-01 1.765691787004470825e-01 -9.379218518733978271e-02
-2.133444547653198242e-01 -1.303084939718246460e-01 2.574146091938018799e-01
-3.452765047550201416e-01 6.554105877876281738e-02 -3.654997944831848145e-01
-2.814866006374359131e-01 1.825484484434127808e-01 4.610734432935714722e-02
-1.848631203174591064e-01 -1.447030454874038696e-01 -1.706099808216094971e-01
-1.021392866969108582e-01 -1.195837631821632385e-01 3.111381828784942627e-01
6.456497311592102051e-01 -1.330209821462631226e-01 -1.304406225681304932e-01
-6.820567250251770020e-01 1.998993009328842163e-02 3.032605946063995361e-01
-4.175569713115692139e-01 1.631669253110885620e-01 1.543694585561752319e-01
7.558903098106384277e-01 -4.994299635291099548e-02 2.731123864650726318e-01
7.147149443626403809e-01 -5.161843076348304749e-02 2.925193011760711670e-01
-6.255827546119689941e-01 9.342735260725021362e-02 2.742500901222229004e-01
-6.726446747779846191e-01 -4.716617241501808167e-02 -2.187201529741287231e-01
5.715956091880798340e-01 4.906525462865829468e-02 -3.272730410099029541e-01
-7.211949229240417480e-01 -5.007396638393402100e-02 -1.775190830230712891e-01
8.350626826286315918e-01 -1.104997470974922180e-01 -9.994764812290668488e-03
5.785594582557678223e-01 -1.330525428056716919e-01 1.943191140890121460e-01
-6.614088416099548340e-01 1.044431403279304504e-01 2.351898401975631714e-01
-4.979947209358215332e-01 -1.300774961709976196e-01 5.798291042447090149e-02
-7.548856735229492188e-01 1.217030435800552368e-01 -6.356939673423767090e-02
5.883089900016784668e-01 1.383051872253417969e-01 -5.104202404618263245e-02
-2.261277139186859131e-01 -7.795613259077072144e-02 -3.372652828693389893e-01
5.534443259239196777e-01 -1.524977535009384155e-01 -7.295566052198410034e-02
-2.530113458633422852e-01 9.092766046524047852e-02 -3.568228483200073242e-01
-1.389875113964080811e-01 1.279078423976898193e-01 3.235502541065216064e-01
-6.761612892150878906e-01 1.385816633701324463e-01 9.407968819141387939e-02
4.011515676975250244e-01 1.424404084682464600e-01 1.959952265024185181e-01
-1.418665945529937744e-01 -1.589828431606292725e-01 1.402338296175003052e-01
4.960230588912963867e-01 1.204314380884170532e-01 -2.282190620899200439e-01
-8.425631523132324219e-01 -4.402810707688331604e-02 -1.970179378986358643e-02
1.431903392076492310e-01 -1.730374246835708618e-01 7.762569189071655273e-02
2.446298301219940186e-01 1.476210653781890869e-01 -2.293072044849395752e-01
-5.096746236085891724e-02 -1.353439986705780029e-01 2.739644944667816162e-01
4.882041513919830322e-01 1.294726431369781494e-01 2.033563405275344849e-01
2.682137787342071533e-01 -1.291371434926986694e-01 -2.641202509403228760e-01
2.870275080204010010e-01 1.621960103511810303e-01 -1.473721414804458618e-01
-1.954381465911865234e-01 -1.624706089496612549e-01 -9.120547212660312653e-03
9.214839935302734375e-01 5.082333832979202271e-02 -3.970149904489517212e-02
2.003023624420166016e-01 1.780921965837478638e-01 -4.940125718712806702e-02
4.077938497066497803e-01 1.467429194599390030e-02 4.013848304748535156e-01
6.285970807075500488e-01 2.107942476868629456e-02 3.350718021392822266e-01
3.592299818992614746e-01 -1.136460602283477783e-01 -2.901020050048828125e-01
-1.121688410639762878e-01 1.694027930498123169e-01 1.913758963346481323e-01
8.353068679571151733e-02 -1.743369698524475098e-01 2.491488307714462280e-02
7.019936442375183105e-01 -4.268176853656768799e-02 -2.916617691516876221e-01
-5.383034348487854004e-01 5.156327039003372192e-03 3.601371347904205322e-01
-9.286228567361831665e-02 1.767697036266326904e-01 1.497327983379364014e-01
3.144544363021850586e-01 1.660149842500686646e-01 -1.027097404003143311e-01
2.340268790721893311e-01 7.441698759794235229e-02 3.893942832946777344e-01
-5.831851959228515625e-01 1.387718766927719116e-01 -1.585725843906402588e-01
8.187161684036254883e-01 7.866132259368896484e-02 -1.165369227528572083e-01
-6.430970430374145508e-01 1.492023319005966187e-01 -3.008648753166198730e-03
5.499264597892761230e-01 1.202257946133613586e-01 -2.003718316555023193e-01
1.376248896121978760e-01 7.863335311412811279e-02 3.956527113914489746e-01
-4.425054490566253662e-01 -1.369151771068572998e-01 -3.337400034070014954e-02
-1.335399150848388672e-01 -7.494207471609115601e-02 3.878360390663146973e-01
1.641744934022426605e-02 1.763618588447570801e-01 1.452947258949279785e-01
2.985684946179389954e-02 1.666522026062011719e-01 -1.913739591836929321e-01
5.457639694213867188e-01 8.672110736370086670e-02 -2.867494821548461914e-01
4.237327575683593750e-01 1.564112454652786255e-01 -9.503170847892761230e-02
-4.320657849311828613e-01 1.659378036856651306e-02 -3.622763156890869141e-01
-8.861269950866699219e-01 7.725334167480468750e-02 3.884259611368179321e-02
3.772990778088569641e-02 -1.181057915091514587e-01 -2.953976094722747803e-01
3.453585505485534668e-02 1.486462354660034180e-01 2.674534618854522705e-01
-1.762069016695022583e-02 -1.168855875730514526e-01 3.267835974693298340e-01
-5.520229935646057129e-01 3.890063241124153137e-02 -3.235356211662292480e-01
-1.537050306797027588e-01 -4.697427153587341309e-02 -3.848814368247985840e-01
2.155510485172271729e-01 -1.743488460779190063e-01 5.870214197784662247e-03
3.401774540543556213e-02 1.586294770240783691e-01 2.326431423425674438e-01
8.284559845924377441e-02 7.134566456079483032e-02 4.074436128139495850e-01
3.433901071548461914e-01 6.277704238891601562e-02 3.834027945995330811e-01
-1.613694429397583008e-01 1.848836839199066162e-01 6.691306084394454956e-02
2.764487862586975098e-01 -1.109526529908180237e-01 3.331854641437530518e-01
-5.707552433013916016e-01 1.556559205055236816e-01 9.133837372064590454e-02
5.227622389793395996e-01 1.117563806474208832e-02 3.743166327476501465e-01
-8.234648108482360840e-01 3.049571067094802856e-02 -1.749516278505325317e-01
-1.411986947059631348e-01 1.847708821296691895e-01 7.278786599636077881e-02
6.163007616996765137e-01 1.030086204409599304e-01 2.177382856607437134e-01
-2.122477889060974121e-01 1.856546550989151001e-01 1.822186633944511414e-02
-1.716270148754119873e-01 -4.030349478125572205e-02 4.171899855136871338e-01
4.306302368640899658e-01 -1.139231175184249878e-01 -2.760862410068511963e-01
-2.593694031238555908e-01 1.704627424478530884e-01 -1.552230268716812134e-01
4.980236291885375977e-02 -4.306036233901977539e-02 -4.021126031875610352e-01
5.957140326499938965e-01 3.777319937944412231e-02 3.361524939537048340e-01
-3.883277773857116699e-01 1.731117069721221924e-01 -8.243584632873535156e-02
-5.515276789665222168e-01 -1.211875155568122864e-01 -2.282578870654106140e-02
-8.148403763771057129e-01 -5.465009808540344238e-02 -3.021037578582763672e-02
-3.678033053874969482e-01 1.765701025724411011e-01 -5.839500576257705688e-02
-6.198921203613281250e-01 -1.038204431533813477e-01 1.164118573069572449e-01
2.004298865795135498e-01 -7.024547457695007324e-02 3.994289636611938477e-01
2.302084565162658691e-01 1.759038567543029785e-01 5.964881926774978638e-02
-7.711161673069000244e-02 1.540070772171020508e-01 -2.441352903842926025e-01
7.494197785854339600e-02 8.838047832250595093e-02 -3.751828968524932861e-01
7.539026141166687012e-01 -1.521579828113317490e-02 -2.790402770042419434e-01
3.947090506553649902e-01 -8.959239721298217773e-02 3.510792255401611328e-01
-4.426368176937103271e-01 -1.330980658531188965e-01 1.193264126777648926e-01
4.587992131710052490e-01 -9.288673847913742065e-02 -3.105458021163940430e-01
1.872574687004089355e-01 1.777271032333374023e-01 7.095731794834136963e-02
-1.792371571063995361e-01 1.047321259975433350e-01 3.638298213481903076e-01
2.299146056175231934e-01 -1.074583530426025391e-01 3.445366024971008301e-01
9.783636331558227539e-01 -2.498886734247207642e-02 -6.393966823816299438e-02
3.398080170154571533e-01 2.019438520073890686e-02 -3.981600105762481689e-01
-2.838020920753479004e-01 -1.270608156919479370e-01 -2.075470685958862305e-01
-5.669471621513366699e-02 1.667998135089874268e-01 2.040286511182785034e-01
5.686249136924743652e-01 -1.158872023224830627e-01 2.529702186584472656e-01
3.640258908271789551e-01 -7.887859642505645752e-02 -3.481965065002441406e-01
2.631188929080963135e-01 -1.499613076448440552e-01 2.253770232200622559e-01
8.306343108415603638e-02 9.561896324157714844e-02 -3.655335903167724609e-01
-4.623560905456542969e-01 -8.298271149396896362e-02 2.976090013980865479e-01
-6.282695531845092773e-01 7.767129689455032349e-02 -2.677085101604461670e-01
-2.956300675868988037e-01 -1.077826321125030518e-01 2.990433275699615479e-01
1.747897565364837646e-01 1.763642579317092896e-01 -9.222731739282608032e-02
4.304299056529998779e-01 -1.609252542257308960e-01 -8.770465105772018433e-02
2.448816597461700439e-01 1.186506673693656921e-01 -3.087037801742553711e-01
5.660779476165771484e-01 -1.431134343147277832e-01 1.550374329090118408e-01
-5.837900638580322266e-01 -2.302535250782966614e-02 3.302069008350372314e-01
-2.638488411903381348e-01 1.421879976987838745e-01 2.762770652770996094e-01
5.351950526237487793e-01 -8.736312389373779297e-02 -3.001807332038879395e-01
-8.405067920684814453e-01 8.499053865671157837e-02 1.231566816568374634e-01
3.744970560073852539e-01 -1.695020943880081177e-01 2.976928651332855225e-02
2.073955833911895752e-01 -1.577852666378021240e-01 -1.638767421245574951e-01
6.902685761451721191e-02 1.776673793792724609e-01 -1.195176616311073303e-01
-1.376186609268188477e-01 1.870505362749099731e-01 -7.675244472920894623e-03
3.961974084377288818e-01 -4.454861208796501160e-02 -3.763777911663055420e-01
9.192878603935241699e-01 -1.887465268373489380e-02 1.670468747615814209e-01
