-2.916389703750610352e-01 -2.818937003612518311e-01 -4.439615905284881592e-01
2.740717530250549316e-01 -7.660183310508728027e-02 4.860780835151672363e-01
2.735263407230377197e-01 4.560823440551757812e-01 2.509415149688720703e-01
-3.160869479179382324e-01 -2.462969571352005005e-01 -3.753685653209686279e-01
-4.195196181535720825e-02 5.535613298416137695e-01 4.747104346752166748e-01
-2.660118043422698975e-01 4.015803337097167969e-01 -1.980152875185012817e-01
2.336999475955963135e-01 -2.805174589157104492e-01 4.691558480262756348e-01
-2.749354243278503418e-01 3.920995295047760010e-01 -1.437001675367355347e-01
-1.198625117540359497e-01 3.916022479534149170e-01 -6.357349753379821777e-01
-2.164642363786697388e-01 4.859500825405120850e-01 -2.607074379920959473e-01
-1.117805615067481995e-01 2.605359554290771484e-01 -7.363246679306030273e-01
2.532688379287719727e-01 -1.093272119760513306e-01 5.319051146507263184e-01
4.870438948273658752e-02 7.088252902030944824e-01 -1.363829523324966431e-01
-1.017024517059326172e-01 -5.745360255241394043e-01 -4.678973853588104248e-01
-2.612541243433952332e-02 1.147795096039772034e-01 -8.301752209663391113e-01
-3.352955216541886330e-03 -6.104988455772399902e-01 4.109615087509155273e-01
2.606661319732666016e-01 -3.977919518947601318e-01 -1.214978918433189392e-01
-2.599083781242370605e-01 -1.686792224645614624e-01 -5.829687714576721191e-01
-1.639187633991241455e-01 7.252741605043411255e-02 -7.478996515274047852e-01
-1.075254231691360474e-01 4.558581113815307617e-01 5.393319725990295410e-01
-9.894992411136627197e-02 -5.325250029563903809e-01 -5.322189927101135254e-01
-1.449012309312820435e-01 5.090486407279968262e-01 4.008314907550811768e-01
3.140884935855865479e-01 -2.416747063398361206e-01 5.672818422317504883e-02
-6.230602785944938660e-02 6.759588122367858887e-01 1.166672781109809875e-01
-1.434379070997238159e-01 4.144369661808013916e-01 5.354956984519958496e-01
-2.361196279525756836e-01 -5.249744653701782227e-01 3.083378970623016357e-01
2.684620022773742676e-01 -3.896524310111999512e-01 -1.163693889975547791e-02
-2.721506953239440918e-01 2.218649536371231079e-01 4.218774437904357910e-01
2.358895689249038696e-01 -1.544973999261856079e-01 5.543223619461059570e-01
-3.424983918666839600e-01 6.560867279767990112e-02 -2.477904856204986572e-01
-2.459145337343215942e-01 -4.927721619606018066e-01 -3.488484919071197510e-01
2.800710201263427734e-01 5.046073198318481445e-01 -1.799871027469635010e-02
-3.301135301589965820e-01 -2.928919196128845215e-01 2.366723418235778809e-01
2.251970469951629639e-01 5.612739920616149902e-01 2.246184200048446655e-01
-3.290039300918579102e-01 -3.330222070217132568e-01 1.875646263360977173e-01
-1.539636403322219849e-01 2.432539910078048706e-01 -6.994446516036987305e-01
8.342320472002029419e-02 6.865763664245605469e-01 -2.329128384590148926e-01
-3.178597986698150635e-01 -1.753584295511245728e-01 3.771239817142486572e-01
-2.977018654346466064e-01 1.010885611176490784e-01 -4.563087224960327148e-01
-1.027806252241134644e-01 -7.016364336013793945e-01 2.504622563719749451e-02
2.311194315552711487e-02 5.096150636672973633e-01 -6.040468215942382812e-01
-7.491345703601837158e-02 -2.389624863862991333e-01 -7.774860262870788574e-01
4.752747714519500732e-02 -3.231198787689208984e-01 -7.224131822586059570e-01
1.110397502779960632e-01 3.532291650772094727e-01 6.694868803024291992e-01
2.648513615131378174e-01 4.627887904644012451e-01 -3.139769732952117920e-01
3.185250163078308105e-01 -1.815842390060424805e-01 -1.942205578088760376e-01
-1.466461420059204102e-01 3.091012239456176758e-01 -6.682015061378479004e-01
7.484708726406097412e-02 -6.463891267776489258e-01 -1.964264959096908569e-01
-3.526678383350372314e-01 -2.637856900691986084e-01 -1.863025128841400146e-02
-3.633017539978027344e-01 -1.329124271869659424e-01 -5.971154943108558655e-02
2.124525308609008789e-01 -3.279249370098114014e-01 4.795445799827575684e-01
-3.592940568923950195e-01 -2.047883421182632446e-01 -3.364422544836997986e-02
2.980231046676635742e-01 -7.589662075042724609e-02 -4.159131050109863281e-01
1.878389269113540649e-01 4.238121807575225830e-01 -5.634575486183166504e-01
3.068144619464874268e-01 2.015821039676666260e-01 -3.999658524990081787e-01
2.092026919126510620e-01 1.932017058134078979e-01 6.322824954986572266e-01
-2.415700554847717285e-01 -1.250601410865783691e-01 -6.317766904830932617e-01
-1.490146815776824951e-01 -1.266001462936401367e-01 7.384438514709472656e-01
-8.326752483844757080e-02 6.736372709274291992e-01 -3.192783519625663757e-02
-3.264770209789276123e-01 -3.764151334762573242e-01 1.103357970714569092e-01
-4.171240329742431641e-02 6.177215576171875000e-01 -4.052271842956542969e-01
-1.358800530433654785e-01 -5.823976397514343262e-01 4.160507321357727051e-01
5.942181125283241272e-02 7.127898931503295898e-01 3.014929965138435364e-02
2.164338827133178711e-01 2.211269587278366089e-01 -6.376482248306274414e-01
3.281252980232238770e-01 3.109608292579650879e-01 1.533785909414291382e-01
3.205875456333160400e-01 3.759968280792236328e-01 -9.682092815637588501e-02
3.105679452419281006e-01 1.832655817270278931e-02 -3.998108506202697754e-01
-2.808291018009185791e-01 2.420911341905593872e-01 3.696057498455047607e-01
2.400887459516525269e-01 -2.967692315578460693e-01 -4.395408928394317627e-01
3.241572678089141846e-01 5.945246666669845581e-02 3.243922591209411621e-01
-1.701861768960952759e-01 -5.577251911163330078e-01 4.088988304138183594e-01
-2.109802365303039551e-01 5.064643025398254395e-01 1.724364459514617920e-01
-6.059766560792922974e-02 5.641453862190246582e-01 -4.887049198150634766e-01
2.395023852586746216e-01 -1.580564826726913452e-01 -5.558786988258361816e-01
1.268517971038818359e-01 -4.142844676971435547e-01 5.600685477256774902e-01
9.597279876470565796e-02 -3.357686102390289307e-01 -6.761053800582885742e-01
-2.545773684978485107e-01 1.657287031412124634e-01 5.156417489051818848e-01
-3.101441860198974609e-01 1.842131465673446655e-01 2.982950210571289062e-01
2.208833992481231689e-01 4.940654933452606201e-01 -4.130372107028961182e-01
-1.316337138414382935e-01 4.121623337268829346e-01 -6.005136966705322266e-01
2.136990800499916077e-02 -6.564568281173706055e-01 -2.728667855262756348e-01
-5.588629096746444702e-02 -6.454122662544250488e-01 -3.446969687938690186e-01
-3.406902551651000977e-01 -3.334862887859344482e-01 2.218645997345447540e-03
-3.236343264579772949e-01 9.324516355991363525e-02 3.099777996540069580e-01
3.025667369365692139e-01 -2.393455654382705688e-01 -2.190346270799636841e-01
2.189039885997772217e-01 -9.253098070621490479e-02 -6.315742135047912598e-01
1.184912696480751038e-01 1.572833955287933350e-01 -7.779542207717895508e-01
3.219742774963378906e-01 3.705469369888305664e-01 6.533771753311157227e-02
-2.038920670747756958e-01 2.452828921377658844e-04 -7.030346989631652832e-01
1.254528462886810303e-01 6.441236734390258789e-01 2.713745236396789551e-01
6.370048224925994873e-02 6.547581553459167480e-01 -3.524616956710815430e-01
3.140254318714141846e-01 -2.273056805133819580e-01 -1.313221156597137451e-01
-1.716296374797821045e-01 -4.680498540401458740e-01 -5.400564670562744141e-01
-1.257044672966003418e-01 2.866370677947998047e-01 -7.078498601913452148e-01
5.266910791397094727e-02 -5.592799782752990723e-01 -4.625930488109588623e-01
1.679735183715820312e-01 -4.490434229373931885e-01 -4.400992691516876221e-01
-3.438718616962432861e-01 -1.568788588047027588e-01 2.481246143579483032e-01
-3.309273421764373779e-01 -3.316181898117065430e-01 1.736336499452590942e-01
-7.440941035747528076e-02 6.623406410217285156e-01 -2.058445513248443604e-01
1.100137308239936829e-01 4.136441051959991455e-01 6.252487301826477051e-01
1.513604372739791870e-01 5.907999277114868164e-01 3.554016053676605225e-01
1.479602009057998657e-01 -3.635832071304321289e-01 5.780884027481079102e-01
3.300049602985382080e-01 -1.215358003973960876e-01 1.757636815309524536e-01
-1.442593187093734741e-01 -4.014422893524169922e-01 -6.355335712432861328e-01
-3.415305018424987793e-01 -3.065674006938934326e-01 -1.340109258890151978e-01
-2.328592389822006226e-01 4.489740729331970215e-01 2.290098518133163452e-01
-8.490661531686782837e-02 4.230532944202423096e-01 -6.433525085449218750e-01
2.002102732658386230e-01 1.903505474328994751e-01 -6.744039058685302734e-01
7.306260056793689728e-03 -6.175643205642700195e-01 3.897997140884399414e-01
-7.619870454072952271e-02 5.889708995819091797e-01 -4.235613346099853516e-01
2.241973429918289185e-01 1.766202449798583984e-01 6.106623411178588867e-01
-3.073905408382415771e-01 -8.822588622570037842e-02 -4.628970921039581299e-01
-1.159274876117706299e-01 -4.040297493338584900e-02 -8.007471561431884766e-01
1.891177147626876831e-01 -2.678017914295196533e-01 -5.940473675727844238e-01
-2.811458110809326172e-01 -2.712899148464202881e-01 -4.836915433406829834e-01
3.480022847652435303e-01 -3.859297558665275574e-02 -6.464231014251708984e-02
1.321083605289459229e-01 3.439339697360992432e-01 6.584219932556152344e-01
1.793153434991836548e-01 2.056479603052139282e-01 -7.008369565010070801e-01
-3.560313284397125244e-01 -2.218862064182758331e-02 -1.820026338100433350e-01
2.321031540632247925e-01 -4.520141184329986572e-01 1.643807590007781982e-01
2.753655984997749329e-02 2.738169729709625244e-01 7.475131154060363770e-01
2.553826570510864258e-01 -3.971395790576934814e-01 1.767217963933944702e-01
3.257415592670440674e-01 2.926338911056518555e-01 2.030601352453231812e-01
-3.491007164120674133e-02 5.784031748771667480e-01 -4.876249134540557861e-01
2.081467509269714355e-01 -4.334435164928436279e-01 -3.446309864521026611e-01
-2.694222927093505859e-01 3.314841687679290771e-01 -3.423198163509368896e-01
3.117606341838836670e-01 8.737602829933166504e-02 3.830886185169219971e-01
-1.253670752048492432e-01 -1.242189630866050720e-01 -7.837492227554321289e-01
2.944476008415222168e-01 4.486850202083587646e-01 -1.619884669780731201e-01
1.107313558459281921e-01 -1.794815361499786377e-01 7.367555499076843262e-01
3.522098958492279053e-01 1.293330639600753784e-01 7.945273071527481079e-02
-2.723695337772369385e-01 -4.878042936325073242e-01 -2.508572638034820557e-01
-3.084796667098999023e-01 -2.704891860485076904e-01 -3.903421759605407715e-01
2.379102259874343872e-01 3.727346360683441162e-01 4.749846160411834717e-01
5.413750931620597839e-02 1.486228555440902710e-01 -8.167914748191833496e-01
-1.933641284704208374e-01 -5.871898531913757324e-01 3.003449738025665283e-01
-2.243902906775474548e-02 7.043984532356262207e-01 -5.391275137662887573e-02
2.319156825542449951e-01 5.634562373161315918e-01 -2.264197468757629395e-01
1.238851025700569153e-01 6.860920190811157227e-01 1.013161763548851013e-01
4.631987586617469788e-02 4.465035796165466309e-01 -6.661264896392822266e-01
2.608568370342254639e-01 -9.533627331256866455e-02 -5.312446951866149902e-01
1.250567883253097534e-01 -3.857072293758392334e-01 5.915274620056152344e-01
-2.653480470180511475e-01 -1.157243251800537109e-01 -5.816560983657836914e-01
-6.635200977325439453e-02 3.427410423755645752e-01 -7.219654917716979980e-01
3.066210746765136719e-01 3.862451910972595215e-01 1.905985325574874878e-01
3.320349752902984619e-01 3.240915238857269287e-01 -9.376466274261474609e-02
-1.471921354532241821e-01 -3.877327144145965576e-01 6.294072866439819336e-01
-1.669048070907592773e-01 -5.489685535430908203e-01 4.287784695625305176e-01
-2.806108891963958740e-01 -3.110669255256652832e-01 -4.577499628067016602e-01
-1.934792846441268921e-01 -3.737956583499908447e-01 -5.978918671607971191e-01
3.413950800895690918e-01 -9.350335597991943359e-02 6.612679362297058105e-02
7.936974614858627319e-02 1.768880039453506470e-01 -7.994855642318725586e-01
-1.738146543502807617e-01 -6.458892822265625000e-01 -1.742385476827621460e-01
2.463964372873306274e-01 5.307810306549072266e-01 2.114762216806411743e-01
-3.047964870929718018e-01 -4.291188716888427734e-01 1.744623184204101562e-01
-2.989076375961303711e-01 -3.423851430416107178e-01 3.444231450557708740e-01
-3.166351616382598877e-01 4.640855267643928528e-02 3.704460561275482178e-01
3.348917663097381592e-01 -9.375924617052078247e-02 1.657415777444839478e-01
3.105197250843048096e-01 5.334305390715599060e-02 -4.061213433742523193e-01
2.991815507411956787e-01 3.925444483757019043e-01 2.288085073232650757e-01
-2.900088727474212646e-01 -4.237890541553497314e-01 -2.930668592453002930e-01
1.883823722600936890e-01 6.463700532913208008e-01 5.503200925886631012e-03
2.743830978870391846e-01 -1.829658746719360352e-01 -4.336848855018615723e-01
-3.290030360221862793e-01 1.346029788255691528e-01 2.402281910181045532e-01
1.015551313757896423e-01 5.126256346702575684e-01 -5.731354355812072754e-01
3.335272371768951416e-01 2.618321180343627930e-01 1.783494949340820312e-01
-1.952155306935310364e-02 7.051885724067687988e-01 7.023700512945652008e-03
1.652388274669647217e-02 -2.929493784904479980e-02 8.136389851570129395e-01
2.957882285118103027e-01 1.957775354385375977e-01 4.206115007400512695e-01
-3.510310053825378418e-01 1.016543060541152954e-01 -8.525314927101135254e-02
-7.872874289751052856e-02 3.110830485820770264e-01 6.948672533035278320e-01
-2.525499761104583740e-01 2.999988794326782227e-01 4.078468382358551025e-01
2.713785767555236816e-01 5.056208968162536621e-01 -1.670709401369094849e-01
-2.824777960777282715e-01 3.630088567733764648e-01 -1.831190735101699829e-01
-3.276599645614624023e-01 1.568379551172256470e-01 -2.627533376216888428e-01
-3.992817550897598267e-02 -6.839208602905273438e-01 -2.214356958866119385e-01
-1.215282306075096130e-01 2.405913770198822021e-01 -7.372633218765258789e-01
-2.868762910366058350e-01 -5.614259093999862671e-02 4.984647035598754883e-01
-2.413357347249984741e-01 -4.132236912846565247e-02 -6.389556527137756348e-01
3.475731909275054932e-01 1.617936193943023682e-01 1.318562328815460205e-01
3.452918529510498047e-01 -4.781910777091979980e-02 -1.083337441086769104e-01
3.142329752445220947e-01 -9.394586086273193359e-02 3.161967694759368896e-01
4.126874357461929321e-02 -3.677980005741119385e-01 6.839153170585632324e-01
9.815283864736557007e-02 -5.466118454933166504e-01 4.196811020374298096e-01
-1.647266000509262085e-01 5.811169147491455078e-01 1.386087238788604736e-01
1.752798855304718018e-01 1.425538957118988037e-01 6.951102018356323242e-01
-2.958576679229736328e-01 2.889683544635772705e-01 2.256002724170684814e-01
8.833882398903369904e-03 7.089136242866516113e-01 6.084778159856796265e-02
2.076781392097473145e-01 -8.661150932312011719e-02 6.391450762748718262e-01
-2.429431378841400146e-01 3.289368152618408203e-01 -4.492976367473602295e-01
1.541091222316026688e-02 -6.757036447525024414e-01 -2.073357552289962769e-01
-3.259512186050415039e-01 2.296653240919113159e-01 8.378954231739044189e-02
6.132093258202075958e-03 -1.298275291919708252e-01 -8.222692608833312988e-01
-3.208779394626617432e-01 -3.531982656568288803e-04 -4.030116796493530273e-01
8.602403104305267334e-02 7.075846791267395020e-01 -8.327402174472808838e-02
-2.966174185276031494e-01 -1.636892110109329224e-01 -4.852641820907592773e-01
-3.137542009353637695e-01 -4.357928633689880371e-01 -2.306924387812614441e-02
9.029062837362289429e-02 3.944726660847663879e-02 -8.103554844856262207e-01
5.590934678912162781e-02 -1.784877926111221313e-01 -7.914125919342041016e-01
2.633945643901824951e-01 1.199899986386299133e-01 -5.594785809516906738e-01
1.126651614904403687e-01 -5.221140980720520020e-01 4.373530745506286621e-01
1.846239417791366577e-01 -6.444484740495681763e-02 6.823772192001342773e-01
-2.573561966419219971e-01 4.392908513545989990e-01 5.849530547857284546e-02
3.201926946640014648e-01 3.927796147763729095e-03 3.343156576156616211e-01
-1.097621396183967590e-01 -1.165313273668289185e-01 -7.962919473648071289e-01
2.577032446861267090e-01 5.459098815917968750e-01 6.110545992851257324e-02
-2.500933706760406494e-01 -7.040720432996749878e-02 5.909514427185058594e-01
-3.407594859600067139e-01 1.657191105186939240e-02 -2.918435931205749512e-01
-1.888420283794403076e-01 4.964548647403717041e-01 3.038866519927978516e-01
3.254594504833221436e-01 -5.030589923262596130e-02 2.806408107280731201e-01
-3.567820191383361816e-01 -1.684270799160003662e-01 1.264389157295227051e-01
-2.955231070518493652e-01 2.209507226943969727e-01 -3.716048598289489746e-01
-5.334259197115898132e-02 -6.541916131973266602e-01 3.202812373638153076e-01
-3.150740563869476318e-01 -2.079574614763259888e-01 3.758254647254943848e-01
2.848161756992340088e-01 4.437786340713500977e-01 -2.486708313226699829e-01
-4.799562692642211914e-02 -2.200688272714614868e-01 7.746337056159973145e-01
-1.970277726650238037e-01 9.086775034666061401e-02 -6.988609433174133301e-01
2.397165596485137939e-01 -3.198998570442199707e-01 -4.125094711780548096e-01
2.162626534700393677e-01 5.383567810058593750e-01 3.105879724025726318e-01
2.453668266534805298e-01 -4.401853978633880615e-01 6.945341080427169800e-02
-2.589638829231262207e-01 2.156265079975128174e-01 4.690832197666168213e-01
3.463336229324340820e-01 -2.092877030372619629e-02 1.171457543969154358e-01
-1.682936698198318481e-01 1.331770569086074829e-01 -7.275289893150329590e-01
3.358168900012969971e-01 3.419673442840576172e-02 2.501772344112396240e-01
1.469723731279373169e-01 3.855997622013092041e-01 -6.501923203468322754e-01
-2.667181193828582764e-01 -5.324620604515075684e-01 1.310840994119644165e-01
2.496176809072494507e-01 4.595192074775695801e-01 -3.778011202812194824e-01
1.472691744565963745e-01 6.738792657852172852e-01 8.867770433425903320e-02
-2.473045289516448975e-01 4.241795837879180908e-01 -2.627090811729431152e-01
-2.000717967748641968e-01 4.815982878208160400e-01 2.964871823787689209e-01
8.535996079444885254e-02 -6.447187662124633789e-01 1.678480952978134155e-01
-7.238045334815979004e-02 6.768321990966796875e-01 5.984780937433242798e-02
2.381087392568588257e-01 -3.105885982513427734e-01 4.233405888080596924e-01
3.290204405784606934e-01 3.111523091793060303e-01 -1.714380979537963867e-01
-1.129744499921798706e-01 -2.385090142488479614e-01 7.391763925552368164e-01
-2.763802409172058105e-01 3.454762995243072510e-01 -2.782055735588073730e-01
-1.797276586294174194e-01 -2.559863924980163574e-01 6.680248379707336426e-01
-1.300655771046876907e-02 6.187713146209716797e-01 3.774293959140777588e-01
-2.230275273323059082e-01 -1.325673907995223999e-01 -6.645892262458801270e-01
-2.847071271389722824e-03 -3.421473801136016846e-01 -7.285467386245727539e-01
7.400195114314556122e-03 3.268097341060638428e-01 7.184908986091613770e-01
-2.945219874382019043e-01 -3.452421128749847412e-01 -3.792963922023773193e-01
2.918878197669982910e-01 -3.219301700592041016e-01 4.429719597101211548e-02
2.066937834024429321e-01 1.004069522023200989e-01 6.559792757034301758e-01
4.432198032736778259e-02 -1.840461641550064087e-01 -7.948392629623413086e-01
1.475147604942321777e-01 6.806639432907104492e-01 -2.864915877580642700e-03
-2.985932230949401855e-01 2.783712446689605713e-01 -2.722727060317993164e-01
-2.868724763393402100e-01 1.452223807573318481e-01 -4.696587026119232178e-01
2.881321609020233154e-01 -1.085673347115516663e-01 -4.360187053680419922e-01
3.261487782001495361e-01 -9.433713741600513458e-03 2.972618043422698975e-01
3.250954449176788330e-01 -1.697395443916320801e-01 -1.478295177221298218e-01
2.083189636468887329e-01 5.630601644515991211e-01 2.817678451538085938e-01
6.158113852143287659e-02 -6.753694415092468262e-01 -3.331428021192550659e-02
1.086131036281585693e-01 -5.879437327384948730e-01 3.050198853015899658e-01
-3.521026670932769775e-02 4.431513249874114990e-01 6.153994202613830566e-01
3.546642661094665527e-01 8.161498606204986572e-02 1.559025328606367111e-02
1.587750911712646484e-01 -3.610518574714660645e-01 -5.689299106597900391e-01
-2.148886173963546753e-01 2.264550179243087769e-01 -6.097890138626098633e-01
7.040918618440628052e-02 4.138717055320739746e-01 -6.860405206680297852e-01
1.516182273626327515e-01 3.650471568107604980e-01 6.245646476745605469e-01
-1.075205504894256592e-01 -5.789539813995361328e-01 -4.562580585479736328e-01
1.563280820846557617e-01 6.560240983963012695e-01 1.555641889572143555e-01
1.319155544042587280e-01 -5.411035418510437012e-01 -3.598614633083343506e-01
2.905578613281250000e-01 2.455550879240036011e-01 4.152672588825225830e-01
2.760698497295379639e-01 -3.364520370960235596e-01 1.949163526296615601e-01
-4.494912177324295044e-02 4.622929692268371582e-01 5.903071165084838867e-01
2.004453688859939575e-01 -3.972016572952270508e-01 -4.310898482799530029e-01
-1.266970783472061157e-01 -4.511474072933197021e-02 7.653468251228332520e-01
2.774539589881896973e-01 4.806864857673645020e-01 -2.040466070175170898e-01
-4.054839909076690674e-02 4.749683439731597900e-01 -6.236408948898315430e-01
2.263747751712799072e-01 -2.331685572862625122e-01 -5.384277105331420898e-01
-2.832037806510925293e-01 -4.399247169494628906e-01 2.808382511138916016e-01
3.201519548892974854e-01 2.179409861564636230e-01 3.053958415985107422e-01
-2.773388922214508057e-01 2.357053458690643311e-01 3.899505734443664551e-01
2.227177172899246216e-01 -4.761779606342315674e-01 -1.377363204956054688e-01
1.823374927043914795e-01 6.507447957992553711e-01 3.522179648280143738e-02
2.104213833808898926e-01 -5.047922730445861816e-01 -9.652748703956604004e-02
-1.114273518323898315e-01 -3.334999084472656250e-01 6.949996352195739746e-01
-1.825709361582994461e-03 -6.749722957611083984e-01 2.343123108148574829e-01
1.287352442741394043e-01 1.837804168462753296e-01 7.346887588500976562e-01
-1.853232681751251221e-01 -6.280048489570617676e-01 -2.081520557403564453e-01
2.284394055604934692e-01 1.319091767072677612e-01 -6.364421248435974121e-01
-8.274029940366744995e-02 -8.928086608648300171e-02 -8.158555626869201660e-01
-2.494753450155258179e-01 3.083873391151428223e-01 -4.522484242916107178e-01
-3.131790161132812500e-01 -5.628700181841850281e-02 -4.421321153640747070e-01
-1.542053371667861938e-02 4.921206235885620117e-01 -6.165327429771423340e-01
-2.185855656862258911e-01 3.293685913085937500e-01 -5.184043049812316895e-01
-1.792473942041397095e-01 5.466293692588806152e-01 2.034059613943099976e-01
-9.172605723142623901e-02 -5.521833300590515137e-01 -5.087240338325500488e-01
9.050932526588439941e-02 -5.566275715827941895e-01 4.139353036880493164e-01
1.917562782764434814e-01 -3.252965807914733887e-01 5.316996574401855469e-01
-1.857575401663780212e-02 -5.766657590866088867e-01 4.777495265007019043e-01
1.840644627809524536e-01 5.537880659103393555e-01 -4.047293365001678467e-01
1.642992794513702393e-01 -5.717318654060363770e-01 -1.161033213138580322e-01
-3.528361916542053223e-01 -3.351380303502082825e-02 1.852425038814544678e-01
7.538177818059921265e-02 -2.192768305540084839e-01 7.486244440078735352e-01
-2.840394154191017151e-02 5.718615651130676270e-01 4.551911950111389160e-01
-2.040354013442993164e-01 5.333034396171569824e-01 -1.478955745697021484e-01
1.092218980193138123e-01 -2.836463749408721924e-01 -6.991184353828430176e-01
5.293780565261840820e-02 -1.628829687833786011e-01 -7.982953786849975586e-01
-1.641559153795242310e-01 -6.544895768165588379e-01 1.645671874284744263e-01
-2.100605517625808716e-02 7.035515308380126953e-01 3.135344013571739197e-02
2.073784470558166504e-01 -2.443227916955947876e-02 6.528717279434204102e-01
1.615374833345413208e-01 2.973823845386505127e-01 -6.872808933258056641e-01
2.181984633207321167e-01 6.045170426368713379e-01 -1.309819519519805908e-01
-3.483727276325225830e-01 1.913879252970218658e-02 -2.336215376853942871e-01
-1.059470847249031067e-01 2.185221612453460693e-01 7.247608304023742676e-01
3.337912857532501221e-01 -1.143714264035224915e-01 1.454979032278060913e-01
3.290312588214874268e-01 5.800960585474967957e-02 2.974490523338317871e-01
2.519159317016601562e-01 3.936313092708587646e-02 -5.887346267700195312e-01
2.746295332908630371e-01 9.444998949766159058e-02 5.100860595703125000e-01
-2.289278656244277954e-01 -5.773071646690368652e-01 2.007364183664321899e-01
-2.804374396800994873e-01 3.594840764999389648e-01 1.667361110448837280e-01
1.367800980806350708e-01 -3.623950183391571045e-01 5.963478684425354004e-01
-3.608923032879829407e-02 6.502543687820434570e-01 2.777090668678283691e-01
-3.464452624320983887e-01 1.001907438039779663e-01 -1.688182055950164795e-01
2.144079208374023438e-01 6.043059229850769043e-01 1.198546960949897766e-01
-3.607703447341918945e-01 -9.460484981536865234e-02 1.046236678957939148e-01
2.672274708747863770e-01 4.692040979862213135e-01 -2.909618616104125977e-01
4.056716337800025940e-02 1.920839995145797729e-01 -8.100865483283996582e-01
-2.966922223567962646e-01 3.353938460350036621e-01 -1.238615438342094421e-01
-2.836559414863586426e-01 2.568413913249969482e-01 -3.835117220878601074e-01
7.132961601018905640e-02 6.329339742660522461e-01 -4.010405242443084717e-01
5.739653855562210083e-02 6.766406893730163574e-01 2.408600598573684692e-01
-2.489775419235229492e-01 -4.564431607723236084e-01 -3.968292474746704102e-01
3.252844214439392090e-01 2.506124973297119141e-01 2.519418299198150635e-01
3.171764612197875977e-01 1.304866522550582886e-01 -3.750894367694854736e-01
-2.875359058380126953e-01 3.434824645519256592e-01 -2.006528824567794800e-01
-2.836445569992065430e-01 -4.129057824611663818e-01 3.215136528015136719e-01
9.266674518585205078e-02 5.504859089851379395e-01 -5.309333801269531250e-01
9.818588197231292725e-02 -4.595047831535339355e-01 5.485481023788452148e-01
-1.366213709115982056e-01 -5.983700044453144073e-03 -7.843335866928100586e-01
-1.697244644165039062e-01 1.155202835798263550e-01 -7.308620810508728027e-01
-1.946104466915130615e-01 -5.171268582344055176e-01 4.284293949604034424e-01
-6.081485003232955933e-02 6.874271035194396973e-01 -4.352346062660217285e-02
-3.340964913368225098e-01 -3.127813711762428284e-02 -3.458957374095916748e-01
-3.255418241024017334e-01 2.112483978271484375e-01 -1.872178912162780762e-01
-1.106012314558029175e-01 5.627244114875793457e-01 -4.194042086601257324e-01
3.098850846290588379e-01 2.026465684175491333e-01 -3.864392936229705811e-01
3.390958905220031738e-02 -4.764437973499298096e-01 -5.947161912918090820e-01
1.887575834989547729e-01 1.956121921539306641e-01 6.631576418876647949e-01
-3.577847778797149658e-01 -1.870394945144653320e-01 -1.205999925732612610e-01
-2.299574613571166992e-01 -1.079121530055999756e-01 6.289794445037841797e-01
-3.139781951904296875e-01 1.981671005487442017e-01 -3.006962537765502930e-01
-7.103420794010162354e-02 6.679151058197021484e-01 1.342878043651580811e-01
-3.136798143386840820e-01 -3.383976817131042480e-01 -3.006124794483184814e-01
-3.544173240661621094e-01 -9.023635834455490112e-02 1.799161285161972046e-01
-2.987438142299652100e-01 -4.716424047946929932e-01 -8.958478271961212158e-02
-1.942998617887496948e-01 -6.087268590927124023e-01 2.380349487066268921e-01
6.498444080352783203e-02 -6.281864643096923828e-01 2.903387248516082764e-01
1.794659644365310669e-01 6.455485820770263672e-01 -1.503260284662246704e-01
1.438619792461395264e-01 -5.400862693786621094e-01 3.288260400295257568e-01
-3.376098275184631348e-01 1.853414438664913177e-02 2.755977511405944824e-01
-2.091028243303298950e-01 -4.016350209712982178e-01 5.334177613258361816e-01
-3.355527818202972412e-01 -1.832595169544219971e-01 2.885453701019287109e-01
1.960194855928421021e-01 -5.239446163177490234e-01 -1.292640119791030884e-01
-3.567611798644065857e-03 -1.930842995643615723e-01 7.866544127464294434e-01
-5.986854061484336853e-02 -6.084845066070556641e-01 -4.259713292121887207e-01
-3.182072639465332031e-01 -3.057569637894630432e-02 -4.200339317321777344e-01
-2.799083590507507324e-01 -4.899191856384277344e-02 -5.489745736122131348e-01
-2.382201254367828369e-01 3.324819207191467285e-01 4.154103696346282959e-01
2.077724486589431763e-01 1.533158421516418457e-01 6.453196406364440918e-01
-2.596862018108367920e-01 4.390985667705535889e-01 -1.340278144925832748e-02
3.167723417282104492e-01 2.713682353496551514e-01 2.838911116123199463e-01
1.289774626493453979e-01 3.246151804924011230e-01 -7.070528268814086914e-01
-9.143272787332534790e-02 5.881356596946716309e-01 3.507614135742187500e-01
-1.628716289997100830e-01 5.654966235160827637e-01 -2.647001445293426514e-01
2.936815321445465088e-01 -2.598414421081542969e-01 -2.452653944492340088e-01
-2.356752753257751465e-01 -3.736752271652221680e-01 5.046418905258178711e-01
1.820376813411712646e-01 2.914882265031337738e-02 6.965554356575012207e-01
-1.397254616022109985e-01 4.256097376346588135e-01 5.287491083145141602e-01
-3.572161793708801270e-01 -1.161660254001617432e-01 1.476161330938339233e-01
1.068746969103813171e-01 -5.054232478141784668e-01 -4.768375158309936523e-01
2.932745814323425293e-01 -2.222980707883834839e-01 -3.083033263683319092e-01
-3.559577465057373047e-01 -9.048532228916883469e-04 -1.699973940849304199e-01
3.142205774784088135e-01 2.237408794462680817e-02 -3.845156431198120117e-01
-3.485704958438873291e-02 -4.192903041839599609e-01 -6.722039580345153809e-01
2.123707905411720276e-02 -4.644898176193237305e-01 -6.152647137641906738e-01
7.947514951229095459e-02 -5.792977213859558105e-01 3.868791162967681885e-01
3.307220041751861572e-01 -8.803389966487884521e-02 -2.245215177536010742e-01
-3.520280718803405762e-01 -2.438927590847015381e-01 -1.207122281193733215e-01
-1.259208023548126221e-01 -2.324784733355045319e-02 -7.935823798179626465e-01
3.404496014118194580e-01 4.524626769125461578e-03 2.027064412832260132e-01
2.366017699241638184e-01 -3.720058202743530273e-01 3.418366611003875732e-01
1.357293594628572464e-02 -6.086375117301940918e-01 -4.054588079452514648e-01
2.873998880386352539e-01 -2.241301536560058594e-01 3.284116983413696289e-01
1.884261071681976318e-01 -4.688262343406677246e-01 3.429659008979797363e-01
-1.432149410247802734e-01 -2.920428812503814697e-01 -7.097181677818298340e-01
-5.454983934760093689e-02 3.541423082351684570e-01 6.807587146759033203e-01
3.052795529365539551e-01 2.545756995677947998e-01 -3.788380920886993408e-01
-2.701787948608398438e-01 1.483452916145324707e-01 4.824955463409423828e-01
2.691875398159027100e-01 -2.097548246383666992e-01 4.198197424411773682e-01
-9.621774405241012573e-02 6.189097166061401367e-01 -3.126124441623687744e-01
-1.763701438903808594e-01 -5.828635096549987793e-01 -3.576763272285461426e-01
-2.631723284721374512e-01 1.293914467096328735e-01 5.127775669097900391e-01
-2.235950529575347900e-01 4.755619466304779053e-01 2.029413282871246338e-01
3.399955034255981445e-01 -1.112835705280303955e-01 -4.050835594534873962e-02
3.369557857513427734e-01 1.408785581588745117e-01 -2.605682909488677979e-01
3.459515869617462158e-01 1.595820672810077667e-02 -1.697567850351333618e-01
8.848410844802856445e-02 -4.768688678741455078e-01 -5.435897707939147949e-01
-2.533498220145702362e-03 -4.103976786136627197e-01 -6.762366294860839844e-01
-2.874402999877929688e-01 -4.240221977233886719e-01 2.879796624183654785e-01
-2.027281671762466431e-01 -6.213680505752563477e-01 -1.602048277854919434e-01
-6.506596505641937256e-02 -7.007572650909423828e-01 1.282849758863449097e-01
9.613427519798278809e-02 5.689934492111206055e-01 4.572271108627319336e-01
-1.764573901891708374e-01 -6.150122880935668945e-01 2.721226513385772705e-01
1.851614862680435181e-01 1.113193184137344360e-01 -7.113475203514099121e-01
-1.341346055269241333e-01 -6.756849884986877441e-01 1.540174782276153564e-01
-2.727566659450531006e-02 3.300786614418029785e-01 -7.479963302612304688e-01
3.074725270271301270e-01 -1.511022895574569702e-01 -3.146646022796630859e-01
2.237551659345626831e-01 2.261079996824264526e-01 -6.223119497299194336e-01
-2.798062562942504883e-01 3.910673856735229492e-01 -1.612388342618942261e-02
2.414506524801254272e-01 -2.222429066896438599e-01 4.974455833435058594e-01
-2.884083092212677002e-01 -8.859939873218536377e-02 -5.239415764808654785e-01
2.685881853103637695e-01 1.047452762722969055e-01 -5.471633076667785645e-01
-7.654578238725662231e-02 -6.057149171829223633e-01 4.223614335060119629e-01
-1.697222590446472168e-01 5.902528166770935059e-01 -5.489032343029975891e-02
-2.784212827682495117e-01 3.758260905742645264e-01 1.287226974964141846e-01
2.309192121028900146e-01 -2.410108745098114014e-01 5.112865567207336426e-01
1.370956003665924072e-01 -2.741574645042419434e-01 6.621434092521667480e-01
3.437344729900360107e-01 8.462708443403244019e-02 1.949554234743118286e-01
-1.316192895174026489e-01 -6.903935670852661133e-01 8.174282498657703400e-03
-3.497110307216644287e-01 -1.842648237943649292e-01 1.895952224731445312e-01
2.127279490232467651e-01 -3.677346706390380859e-01 -4.363191127777099609e-01
2.955936789512634277e-01 -2.194059453904628754e-02 -4.483029246330261230e-01
-7.178275287151336670e-02 -4.635043144226074219e-01 6.155897378921508789e-01
2.990823984146118164e-01 4.544916749000549316e-01 2.062139287590980530e-02
-3.305095136165618896e-01 2.410805225372314453e-02 3.135684728622436523e-01
1.023349091410636902e-01 -6.412582397460937500e-01 9.467529505491256714e-02
9.358371794223785400e-02 5.035920739173889160e-01 -5.891029238700866699e-01
3.227270394563674927e-02 5.596683621406555176e-01 -5.395281314849853516e-01
-1.170890852808952332e-01 -1.357244998216629028e-01 7.643490433692932129e-01
-3.426181375980377197e-01 1.518313884735107422e-01 -1.059856489300727844e-01
2.266433387994766235e-01 -2.909361124038696289e-01 -4.864734411239624023e-01
3.389101326465606689e-01 2.174714505672454834e-01 -2.023248523473739624e-01
-9.923148900270462036e-03 -4.291325509548187256e-01 6.523379087448120117e-01
2.791110575199127197e-01 -1.835766583681106567e-01 4.052070379257202148e-01
2.133978307247161865e-01 -3.746599256992340088e-01 4.200606942176818848e-01
1.740115135908126831e-01 6.080762743949890137e-01 -3.120029568672180176e-01
3.295392543077468872e-02 4.754796028137207031e-01 5.981386303901672363e-01
-2.016438096761703491e-01 -6.306675076484680176e-01 1.045842990279197693e-01
-3.013585507869720459e-01 2.615419924259185791e-01 -2.844734489917755127e-01
1.617140024900436401e-01 6.599904298782348633e-01 1.114576533436775208e-01
2.528567016124725342e-01 5.587009191513061523e-01 -5.474137142300605774e-02
1.367743760347366333e-01 -4.428900778293609619e-01 5.106001496315002441e-01
3.139817714691162109e-01 -2.457371056079864502e-01 -2.297150716185569763e-02
1.516567450016736984e-02 7.115426063537597656e-01 -9.203431755304336548e-02
-2.069136947393417358e-01 1.921511739492416382e-01 6.060742139816284180e-01
-2.789147943258285522e-02 -3.947361111640930176e-01 -6.926546096801757812e-01
-1.701902151107788086e-01 -6.530658006668090820e-01 1.472084671258926392e-01
-2.634439468383789062e-01 -3.507645726203918457e-01 -4.746551513671875000e-01
3.275450766086578369e-01 3.195258975028991699e-01 1.425267457962036133e-01
-3.353054523468017578e-01 -3.204715251922607422e-01 -1.757652014493942261e-01
-2.570076882839202881e-01 3.686376810073852539e-01 2.893076837062835693e-01
3.193228840827941895e-01 2.047440409660339355e-01 -3.410420715808868408e-01
5.462546274065971375e-02 2.908913195133209229e-01 -7.685415744781494141e-01
1.784444302320480347e-01 4.326091110706329346e-01 5.336192846298217773e-01
1.655100733041763306e-01 -5.435103774070739746e-01 2.402244061231613159e-01
-2.754210531711578369e-01 4.022105038166046143e-01 -2.791170589625835419e-02
-2.266182750463485718e-01 3.673809170722961426e-01 -4.519349336624145508e-01
-3.324051201343536377e-01 -2.728263437747955322e-01 2.435521036386489868e-01
2.212148755788803101e-01 1.191092357039451599e-01 -6.517823338508605957e-01
-3.487743735313415527e-01 9.111901372671127319e-02 1.149771884083747864e-01
8.030728250741958618e-02 -4.898396432399749756e-01 -5.364640951156616211e-01
2.128822058439254761e-01 -4.802320152521133423e-02 -6.562230587005615234e-01
-1.853445172309875488e-01 3.632962405681610107e-01 -5.589827895164489746e-01
2.373681217432022095e-01 5.410424470901489258e-01 -2.659140229225158691e-01
8.607877790927886963e-02 -4.658077955245971680e-01 -5.604049563407897949e-01
-5.263116583228111267e-02 3.110116720199584961e-01 -7.493949532508850098e-01
-3.000936657190322876e-02 -7.079689502716064453e-01 -4.435520619153976440e-02
1.970254927873611450e-01 2.222891896963119507e-02 -6.945379376411437988e-01
1.386895626783370972e-01 6.864822506904602051e-01 -3.587466478347778320e-02
1.357861459255218506e-01 4.667497873306274414e-01 -5.923521518707275391e-01
2.967049181461334229e-01 -2.397869229316711426e-01 -2.609694302082061768e-01
3.139160275459289551e-01 2.909371554851531982e-01 2.811125218868255615e-01
-3.006941974163055420e-01 -4.014898538589477539e-01 2.585156857967376709e-01
6.782650947570800781e-02 -5.577991604804992676e-01 4.452789127826690674e-01
-2.948783040046691895e-01 3.721963614225387573e-02 4.565913081169128418e-01
1.208583340048789978e-01 5.520573854446411133e-01 4.617964327335357666e-01
-2.394208759069442749e-01 4.809125959873199463e-01 -4.725741222500801086e-03
1.273520886898040771e-01 6.403618305921554565e-02 -7.812539935111999512e-01
-3.449669182300567627e-01 -1.302282810211181641e-01 2.488873451948165894e-01
-2.304103821516036987e-01 -1.691693663597106934e-01 6.180177927017211914e-01
-3.606894910335540771e-01 -1.865635067224502563e-01 1.409584190696477890e-02
-3.617067635059356689e-01 -6.072263792157173157e-02 8.488203585147857666e-02
-2.429071813821792603e-01 4.656258225440979004e-01 -1.372030079364776611e-01
2.979844212532043457e-01 -2.689751684665679932e-01 -1.909336894750595093e-01
1.516213864088058472e-01 -1.729574501514434814e-01 6.950237154960632324e-01
3.324839472770690918e-01 2.331809401512145996e-01 2.176122814416885376e-01
-2.702129483222961426e-01 -1.127028539776802063e-01 5.418796539306640625e-01
3.395860195159912109e-01 2.327679544687271118e-01 -1.797809004783630371e-01
5.177404358983039856e-02 7.148032188415527344e-01 -4.900620505213737488e-02
-1.483499258756637573e-01 -2.128712087869644165e-01 7.188659310340881348e-01
-3.208130896091461182e-01 2.189316749572753906e-01 1.744373291730880737e-01
-1.562406569719314575e-01 4.649777412414550781e-01 4.476480185985565186e-01
-2.934547364711761475e-01 1.197048053145408630e-01 -4.616555571556091309e-01
3.286946713924407959e-01 2.704128324985504150e-01 2.081000953912734985e-01
2.940913140773773193e-01 2.808716297149658203e-01 -4.071336686611175537e-01
3.361715376377105713e-01 8.652650564908981323e-02 2.539453208446502686e-01
3.010632991790771484e-01 1.652099639177322388e-01 4.119895100593566895e-01
-2.741961181163787842e-01 -2.832027673721313477e-01 4.741132259368896484e-01
-2.628235816955566406e-01 1.616691201925277710e-01 4.956672191619873047e-01
-2.673426270484924316e-01 3.556657731533050537e-01 -3.088494241237640381e-01
-2.896074056625366211e-01 -4.650788903236389160e-01 1.909034401178359985e-01
-4.180656746029853821e-03 -4.999179020524024963e-02 8.140464425086975098e-01
-2.408509999513626099e-01 -2.123341113328933716e-01 5.855370759963989258e-01
4.289573058485984802e-02 -2.131757736206054688e-01 -7.840018272399902344e-01
3.670326434075832367e-03 -1.144509315490722656e-01 -8.261811137199401855e-01
-5.922840908169746399e-02 6.787266731262207031e-01 -1.624747216701507568e-01
1.442911177873611450e-01 4.238008335232734680e-02 7.421352863311767578e-01
3.532514274120330811e-01 1.048486679792404175e-01 -8.599647879600524902e-02
-1.440380215644836426e-01 6.140079498291015625e-01 8.203053474426269531e-02
5.666508525609970093e-02 -9.963233023881912231e-02 -8.139193058013916016e-01
-1.100922822952270508e-01 -6.296683102846145630e-02 7.775480747222900391e-01
-3.534292578697204590e-01 9.173832088708877563e-02 -2.895226329565048218e-02
2.320153564214706421e-01 3.088445067405700684e-01 -5.666741728782653809e-01
-1.185317710041999817e-02 6.456272602081298828e-01 3.151009678840637207e-01
-2.860342264175415039e-01 -5.003430247306823730e-01 -1.016166508197784424e-01
-1.618644893169403076e-01 5.291715264320373535e-01 3.174508213996887207e-01
2.988746389746665955e-02 6.345598101615905762e-01 -4.073587954044342041e-01
4.717585444450378418e-02 -8.606996387243270874e-02 -8.208087682723999023e-01
1.509654372930526733e-01 6.739168167114257812e-01 -1.130949705839157104e-01
6.310708075761795044e-02 1.933671236038208008e-01 -8.025304079055786133e-01
-2.684565782546997070e-01 4.191106855869293213e-01 -2.499118633568286896e-02
-2.936002910137176514e-01 -7.371078431606292725e-02 4.786548018455505371e-01
-4.244121536612510681e-02 -6.578617691993713379e-01 3.104963004589080811e-01
-2.837651669979095459e-01 1.852674484252929688e-01 4.123539626598358154e-01
1.495791673660278320e-01 2.877371609210968018e-01 -7.055787444114685059e-01
2.903021275997161865e-01 -2.662130892276763916e-01 2.496731430292129517e-01
1.430031955242156982e-01 -5.973621010780334473e-01 -1.191903650760650635e-01
-1.388725787401199341e-01 5.658801794052124023e-01 -3.468084037303924561e-01
1.969313025474548340e-01 3.026736713945865631e-02 6.746060252189636230e-01
-2.664085626602172852e-01 -4.827601313591003418e-01 -2.904120087623596191e-01
-2.913627326488494873e-01 3.595495522022247314e-01 -3.273454494774341583e-03
-1.575882434844970703e-01 6.013149619102478027e-01 -1.114266961812973022e-01
-2.839896678924560547e-01 -2.773048877716064453e-01 -4.713862538337707520e-01
2.580159008502960205e-01 -8.545637875795364380e-02 -5.433064699172973633e-01
3.090327382087707520e-01 4.047397077083587646e-01 1.220597550272941589e-01
-1.255534738302230835e-01 5.113302469253540039e-01 4.354147613048553467e-01
3.148309886455535889e-01 -1.789714545011520386e-01 -2.306859493255615234e-01
1.302320212125778198e-01 5.899366140365600586e-01 -4.322861433029174805e-01
-5.080005899071693420e-02 6.794899702072143555e-01 1.332365870475769043e-01
3.400202989578247070e-01 1.742916256189346313e-01 2.013073265552520752e-01
1.331578940153121948e-01 5.705237984657287598e-01 -4.621753394603729248e-01
1.166840270161628723e-01 -9.803152084350585938e-02 -7.731128334999084473e-01
-3.414209783077239990e-01 1.695733368396759033e-01 -2.999622747302055359e-02
8.280760049819946289e-02 -5.083928108215332031e-01 5.042970180511474609e-01
3.202972710132598877e-01 5.395052209496498108e-02 3.434613347053527832e-01
-2.379596829414367676e-01 4.771386682987213135e-01 -1.255290508270263672e-01
2.927216887474060059e-01 -2.754841148853302002e-01 -2.199352234601974487e-01
2.699463069438934326e-01 2.972649037837982178e-01 -4.780240058898925781e-01
-1.411430835723876953e-01 -4.939813315868377686e-01 -5.465752482414245605e-01
2.597298324108123779e-01 4.268267750740051270e-01 3.545079529285430908e-01
-2.431978583335876465e-01 -5.051650404930114746e-01 3.227320313453674316e-01
-3.584933876991271973e-01 -1.775298267602920532e-01 9.216310083866119385e-02
-1.119313910603523254e-01 -3.100548684597015381e-01 -7.240206599235534668e-01
2.078993022441864014e-01 6.234868764877319336e-01 -7.623049616813659668e-02
-4.401905462145805359e-02 6.853336095809936523e-01 1.172575131058692932e-01
2.805861830711364746e-01 -2.460055053234100342e-01 3.343281149864196777e-01
-2.844950854778289795e-01 2.577689010649919510e-04 4.985662102699279785e-01
5.523776635527610779e-02 6.473008394241333008e-01 3.262393474578857422e-01
-1.445366591215133667e-01 3.953732848167419434e-01 5.542395114898681641e-01
1.862241476774215698e-01 3.829694688320159912e-01 5.657839775085449219e-01
1.154411956667900085e-01 6.983096003532409668e-01 -5.631369352340698242e-02
3.326563835144042969e-01 1.285694390535354614e-01 -2.922748923301696777e-01
8.490690588951110840e-02 2.223938107490539551e-01 -7.833154201507568359e-01
-1.735999584197998047e-01 3.115192651748657227e-01 -6.263962984085083008e-01
-1.734251156449317932e-02 -3.294076025485992432e-01 7.259314060211181641e-01
-2.373241037130355835e-01 4.797190725803375244e-01 6.494981050491333008e-02
2.960799336433410645e-01 1.178360730409622192e-01 4.404178857803344727e-01
-1.150496676564216614e-01 5.127528309822082520e-01 -4.991815388202667236e-01
3.494088351726531982e-01 5.909497290849685669e-02 1.302062273025512695e-01
2.004445046186447144e-01 3.987042903900146484e-01 -5.639158487319946289e-01
1.659981757402420044e-01 -2.018488794565200806e-01 -6.752515435218811035e-01
2.986571788787841797e-01 -2.599925994873046875e-01 2.000920176506042480e-01
3.092622160911560059e-01 -2.366589754819869995e-01 1.552936434745788574e-01
-2.316968441009521484e-01 -2.912736833095550537e-01 -5.893163681030273438e-01
-3.090119957923889160e-01 -3.886640071868896484e-01 2.321697473526000977e-01
-3.211064934730529785e-01 -2.932027578353881836e-01 -3.126471042633056641e-01
2.909193634986877441e-01 -2.059192955493927002e-01 3.323404490947723389e-01
3.152691759169101715e-03 4.060992002487182617e-01 -7.017650604248046875e-01
-3.370636403560638428e-01 -3.501470983028411865e-01 -3.027191013097763062e-02
-6.025169044733047485e-02 3.188875913619995117e-01 -7.408005595207214355e-01
1.817955821752548218e-01 3.893595933914184570e-02 -7.184026241302490234e-01
-1.911476254463195801e-01 4.383448958396911621e-01 4.052521884441375732e-01
-6.715762615203857422e-02 -5.983382463455200195e-01 -4.434120953083038330e-01
2.857636660337448120e-02 3.306571245193481445e-01 7.160472869873046875e-01
-2.820836603641510010e-01 -4.544653594493865967e-01 -2.747539281845092773e-01
1.611162871122360229e-01 -1.590660065412521362e-01 6.880050301551818848e-01
2.567114830017089844e-01 -3.758581578731536865e-01 -2.341667115688323975e-01
2.921505868434906006e-01 2.119909822940826416e-01 4.265982508659362793e-01
-1.841430217027664185e-01 -3.861339092254638672e-01 5.860389471054077148e-01
-3.489034771919250488e-01 3.436249494552612305e-02 1.819985508918762207e-01
-3.568370938301086426e-01 -4.190490394830703735e-02 -1.809479892253875732e-01
3.886751085519790649e-02 -5.042145848274230957e-01 5.527954101562500000e-01
-2.581504881381988525e-01 -5.511602759361267090e-01 1.158589795231819153e-01
-2.920374274253845215e-01 2.867231611162424088e-03 -5.085330605506896973e-01
-2.645681202411651611e-01 3.392630815505981445e-01 -3.521277308464050293e-01
3.052043318748474121e-01 2.985531687736511230e-01 -3.459091484546661377e-01
-2.965834140777587891e-01 -2.142264693975448608e-01 -4.664735794067382812e-01
-8.193153142929077148e-02 5.531522631645202637e-01 -4.822858572006225586e-01
2.878898978233337402e-01 -2.933229207992553711e-01 -2.166188359260559082e-01
-2.494280189275741577e-01 3.506125509738922119e-01 3.519467413425445557e-01
8.160812407732009888e-02 -6.418107151985168457e-01 1.967756152153015137e-01
1.597784012556076050e-01 6.376136541366577148e-01 -2.629572451114654541e-01
2.502908706665039062e-01 -2.581091225147247314e-01 4.398584961891174316e-01
-1.597556769847869873e-01 3.306833505630493164e-01 -6.333540081977844238e-01
2.907042801380157471e-01 3.101232349872589111e-01 3.693976402282714844e-01
-2.853364348411560059e-01 -4.940292239189147949e-01 1.281696259975433350e-01
-1.787198185920715332e-01 2.707416415214538574e-01 6.066544651985168457e-01
3.486240208148956299e-01 8.410578966140747070e-02 1.441094875335693359e-01
2.644979357719421387e-01 -1.075883358716964722e-01 -5.150231122970581055e-01
1.075261831283569336e-01 6.076619029045104980e-01 3.796783685684204102e-01
7.781589776277542114e-02 1.536528170108795166e-01 -8.055770993232727051e-01
2.917032241821289062e-01 4.328655302524566650e-01 -2.284478992223739624e-01
-2.660578116774559021e-02 -6.324136257171630859e-01 -3.742416799068450928e-01
-3.879011422395706177e-02 -2.261272072792053223e-02 -8.367196917533874512e-01
2.622657418251037598e-01 -2.487605661153793335e-01 -4.157564938068389893e-01
3.312326967716217041e-01 3.055588603019714355e-01 1.302564144134521484e-01
3.403232097625732422e-01 6.736096739768981934e-02 -2.407636791467666626e-01
1.753511577844619751e-01 5.400090813636779785e-01 -4.453077316284179688e-01
2.754088640213012695e-01 -2.570414841175079346e-01 3.444493412971496582e-01
-2.124246358871459961e-01 1.850142031908035278e-01 -6.377369761466979980e-01
-1.782696396112442017e-01 -6.552612185478210449e-01 -8.924131095409393311e-02
-3.037665188312530518e-01 3.226548731327056885e-01 -1.781587302684783936e-02
4.180909320712089539e-02 5.915354490280151367e-01 4.427198767662048340e-01
-8.356902003288269043e-02 6.509609818458557129e-01 -2.307991683483123779e-01
