2.808841466903686523e-01 3.399716019630432129e-01 5.641593411564826965e-02
-2.412893995642662048e-02 -1.970555931329727173e-01 -7.899539172649383545e-02
3.593184947967529297e-01 1.972136795520782471e-01 -7.786899805068969727e-02
8.905927091836929321e-02 -2.687014639377593994e-01 -2.244191057980060577e-02
-1.327200513333082199e-02 2.011423259973526001e-01 -7.521900534629821777e-02
7.082476466894149780e-02 3.825867176055908203e-02 -9.679708629846572876e-02
1.604761481285095215e-01 2.950132489204406738e-01 -6.372098624706268311e-02
5.379667878150939941e-01 1.925231218338012695e-01 5.403011664748191833e-02
-3.340046107769012451e-01 1.200974639505147934e-02 -7.217076420783996582e-02
4.408942759037017822e-01 -4.542599990963935852e-02 5.368536338210105896e-03
-4.614188969135284424e-01 -8.576817810535430908e-02 5.814420431852340698e-02
-3.343869745731353760e-02 -3.192952275276184082e-02 9.686116874217987061e-02
-4.262503981590270996e-01 -2.171885967254638672e-02 -5.900162085890769958e-02
-1.388175934553146362e-01 1.784891635179519653e-01 -6.397095322608947754e-02
3.159882426261901855e-01 -9.275157004594802856e-02 5.049883201718330383e-02
4.103101193904876709e-01 5.294088274240493774e-02 -6.333062797784805298e-02
-1.850060224533081055e-01 -5.104617774486541748e-02 -9.450912475585937500e-02
-2.240978032350540161e-01 -3.814409971237182617e-01 -2.580164559185504913e-02
2.299554497003555298e-01 -1.624823361635208130e-01 4.542683064937591553e-02
-3.365283012390136719e-01 -1.245469152927398682e-01 -8.535977452993392944e-02
-9.555616229772567749e-02 -7.872803509235382080e-02 9.508885443210601807e-02
-2.053501009941101074e-01 1.262353807687759399e-01 -6.817244738340377808e-02
3.594936728477478027e-01 -3.857827931642532349e-02 5.748117715120315552e-02
4.336188435554504395e-01 7.235201448202133179e-02 6.510557979345321655e-02
-1.206944733858108521e-01 2.647035121917724609e-01 4.435123410075902939e-03
-2.731904089450836182e-01 -3.360001146793365479e-01 -5.805674940347671509e-02
-2.378970682621002197e-01 -9.570789337158203125e-02 8.949011564254760742e-02
-9.861651062965393066e-02 2.108229696750640869e-01 -5.973236635327339172e-02
-6.030172854661941528e-02 -1.516345292329788208e-01 8.854836970567703247e-02
-1.601804792881011963e-01 -2.709291279315948486e-01 -7.177632302045822144e-02
3.621346354484558105e-01 3.193348050117492676e-01 -6.062525510787963867e-02
4.743801653385162354e-01 3.549942672252655029e-01 -4.283657297492027283e-02
1.370743811130523682e-01 -2.051283270120620728e-01 5.139122530817985535e-02
3.777393996715545654e-01 2.190692722797393799e-01 -7.486712932586669922e-02
-3.046131730079650879e-01 6.725511699914932251e-02 -6.493300199508666992e-02
2.543259263038635254e-01 1.112212240695953369e-02 8.540601283311843872e-02
3.270256817340850830e-01 1.247509270906448364e-01 -8.225195854902267456e-02
-4.972146749496459961e-01 -3.288657665252685547e-01 -5.295954272150993347e-02
3.726481460034847260e-03 1.391269862651824951e-01 -8.858983218669891357e-02
-9.583783149719238281e-02 3.551682084798812866e-02 9.308101236820220947e-02
-2.802506983280181885e-01 -2.017892599105834961e-01 8.257330209016799927e-02
4.016828536987304688e-01 7.911862432956695557e-02 7.234969735145568848e-02
-6.257095932960510254e-01 -2.844001352787017822e-01 2.126495912671089172e-02
4.692333340644836426e-01 3.752171993255615234e-02 -4.261792451143264771e-02
-3.134104013442993164e-01 1.357277184724807739e-01 -2.974179945886135101e-02
-1.475376635789871216e-01 3.689758852124214172e-02 -9.142558276653289795e-02
2.910795509815216064e-01 2.490089088678359985e-01 7.869545370340347290e-02
-3.968959748744964600e-01 -3.794954717159271240e-01 3.876497969031333923e-02
-2.439256608486175537e-01 -1.001605913043022156e-01 -9.199665486812591553e-02
7.344047725200653076e-02 3.491529226303100586e-01 -5.226138746365904808e-04
2.795306146144866943e-01 6.615673005580902100e-02 8.725839853286743164e-02
-5.047761797904968262e-01 -1.903468966484069824e-01 5.841451510787010193e-02
-1.201884262263774872e-02 2.963520884513854980e-01 3.296047076582908630e-02
2.155560106039047241e-01 -1.987732499837875366e-01 -2.283672615885734558e-02
3.758686780929565430e-01 1.056489273905754089e-01 -7.552546262741088867e-02
-3.351399004459381104e-01 -2.169929444789886475e-01 -8.202164620161056519e-02
8.692361414432525635e-02 2.020398825407028198e-01 8.251671493053436279e-02
1.805451512336730957e-01 8.518011122941970825e-02 9.401334822177886963e-02
-2.375426143407821655e-01 5.511069670319557190e-03 8.379209041595458984e-02
3.769496083259582520e-01 7.689296454191207886e-02 7.619075477123260498e-02
-4.924902021884918213e-01 -4.823653027415275574e-02 -4.499419778585433960e-02
-4.478221014142036438e-02 3.006758391857147217e-01 -7.851267233490943909e-03
1.328931897878646851e-01 3.123838305473327637e-01 -5.455227196216583252e-02
4.706974923610687256e-01 1.985455155372619629e-01 6.790251284837722778e-02
-4.860342144966125488e-01 -3.926011323928833008e-01 -3.052985109388828278e-02
3.466040194034576416e-01 2.100721895694732666e-01 8.078882098197937012e-02
2.517561316490173340e-01 -1.617170274257659912e-01 3.741694614291191101e-02
-2.003674060106277466e-01 -1.104646697640419006e-01 -9.373811632394790649e-02
5.874642133712768555e-01 2.364035099744796753e-01 4.100386053323745728e-02
2.445342391729354858e-01 3.349506855010986328e-01 5.638292431831359863e-02
-1.415288150310516357e-01 -1.455127894878387451e-01 9.058460593223571777e-02
-2.631409764289855957e-01 -1.439967155456542969e-01 8.715698868036270142e-02
-2.682394683361053467e-01 -1.503717005252838135e-01 8.662126213312149048e-02
8.426696062088012695e-02 5.411662161350250244e-03 -9.600135684013366699e-02
4.358385205268859863e-01 3.640061616897583008e-01 4.670495539903640747e-02
-2.109469920396804810e-01 -4.433679953217506409e-02 9.016696363687515259e-02
2.407531253993511200e-03 1.882202774286270142e-01 -7.974129170179367065e-02
-4.195221066474914551e-01 4.516429826617240906e-02 -3.556661307811737061e-02
5.431404113769531250e-01 1.036706194281578064e-01 3.716250509023666382e-02
4.198651015758514404e-02 2.317392081022262573e-01 -7.263923436403274536e-02
5.053567886352539062e-01 4.074161648750305176e-01 4.617396276444196701e-03
4.815248548984527588e-01 3.144316375255584717e-01 -5.217019468545913696e-02
-5.255913734436035156e-01 -3.145648837089538574e-01 4.639380797743797302e-02
-2.004380226135253906e-01 1.378746926784515381e-01 -6.555633991956710815e-02
2.102511823177337646e-01 2.365503907203674316e-01 8.083893358707427979e-02
8.175850845873355865e-03 3.241845667362213135e-01 4.293061792850494385e-04
-4.699687659740447998e-01 -1.000811979174613953e-01 5.827132239937782288e-02
1.870687901973724365e-01 1.752694137394428253e-02 9.190079569816589355e-02
-2.215992659330368042e-01 4.051245376467704773e-02 -8.401113748550415039e-02
-2.265798673033714294e-02 -1.477790921926498413e-01 -8.797081559896469116e-02
2.437079548835754395e-01 -1.863213181495666504e-01 1.857095956802368164e-02
3.634285628795623779e-01 1.130485460162162781e-01 8.068498224020004272e-02
-4.713613688945770264e-01 -2.509527206420898438e-01 -6.749308854341506958e-02
3.177576661109924316e-01 2.860150933265686035e-01 -6.943539530038833618e-02
-2.371432185173034668e-01 -3.472796380519866943e-01 -5.084734782576560974e-02
-6.074067950248718262e-01 -3.029239475727081299e-01 -3.368768841028213501e-02
3.774306178092956543e-01 -7.295482605695724487e-02 -3.246410191059112549e-02
3.378191590309143066e-01 -7.756187021732330322e-02 -4.672470688819885254e-02
2.958857119083404541e-01 3.608679473400115967e-01 4.845956340432167053e-02
5.339642763137817383e-01 1.167369261384010315e-01 -4.001647606492042542e-02
2.416722327470779419e-01 -1.122508794069290161e-01 -6.094425916671752930e-02
-9.869140386581420898e-02 -1.990187168121337891e-01 -8.399447053670883179e-02
2.832310795783996582e-01 2.686072289943695068e-01 7.547064870595932007e-02
2.697087824344635010e-01 2.105492800474166870e-01 8.416654914617538452e-02
-1.653843224048614502e-01 -3.259009122848510742e-02 9.274950623512268066e-02
5.195598602294921875e-01 3.205923140048980713e-01 4.953240603208541870e-02
4.843598604202270508e-01 1.077678352594375610e-01 5.860919877886772156e-02
4.256142377853393555e-01 4.063293039798736572e-01 2.298570051789283752e-02
4.490100741386413574e-01 9.809470921754837036e-02 -6.159576401114463806e-02
2.132662832736968994e-01 -1.098280325531959534e-01 -6.763003766536712646e-02
3.710162937641143799e-01 3.983337879180908203e-01 -2.726954780519008636e-02
-4.789653420448303223e-01 -2.852979600429534912e-01 -6.289525330066680908e-02
2.103829681873321533e-01 -6.445679068565368652e-02 -7.827076315879821777e-02
2.261107265949249268e-01 2.506318986415863037e-01 7.855425775051116943e-02
2.770001292228698730e-01 -6.781797111034393311e-02 6.846033036708831787e-02
-4.852669537067413330e-01 -3.527924716472625732e-01 -4.794905707240104675e-02
2.178335338830947876e-01 2.807101309299468994e-01 -7.059259712696075439e-02
5.292740464210510254e-01 2.882942855358123779e-01 -4.856311529874801636e-02
-2.539885789155960083e-02 -1.377701014280319214e-01 -8.955384790897369385e-02
3.650965392589569092e-01 5.427817627787590027e-02 -7.237404584884643555e-02
-6.039801239967346191e-01 -3.348836302757263184e-01 2.150410786271095276e-02
3.878543674945831299e-01 -3.877749294042587280e-02 -4.503986611962318420e-02
5.182158350944519043e-01 3.935814499855041504e-01 2.124813757836818695e-02
3.370664119720458984e-01 -5.681040696799755096e-03 7.085005939006805420e-02
-4.473640620708465576e-01 -4.645967110991477966e-02 5.417183786630630493e-02
-4.162437617778778076e-01 -3.951880931854248047e-01 2.943793684244155884e-02
9.868913143873214722e-02 3.182779550552368164e-01 4.672980308532714844e-02
1.716912388801574707e-01 -1.807565689086914062e-01 -5.222389474511146545e-02
-1.706064641475677490e-01 2.192931063473224640e-02 8.881886303424835205e-02
-5.107754468917846680e-01 -2.530035674571990967e-01 -6.164046004414558411e-02
-2.371190637350082397e-01 -1.379323452711105347e-01 -9.150183945894241333e-02
4.567418992519378662e-01 3.253198862075805664e-01 -5.278528481721878052e-02
2.629348635673522949e-01 2.808670401573181152e-01 -7.117842137813568115e-02
-3.730349242687225342e-01 -1.672671586275100708e-01 7.782819122076034546e-02
4.057699814438819885e-02 -2.903380990028381348e-01 2.454865910112857819e-02
2.686658799648284912e-01 2.305452078580856323e-01 -7.987053692340850830e-02
-8.167330175638198853e-02 1.930933147668838501e-01 6.716701388359069824e-02
-2.834813892841339111e-01 -3.883101642131805420e-01 -3.083525225520133972e-02
2.211046218872070312e-01 1.903662979602813721e-01 -8.575752377510070801e-02
-2.870387136936187744e-01 1.426024436950683594e-01 3.462383523583412170e-02
-4.246892929077148438e-01 3.134234994649887085e-02 3.573249652981758118e-02
-6.182484626770019531e-01 -2.359264194965362549e-01 2.554286830127239227e-02
-1.806035637855529785e-01 2.295057922601699829e-01 -1.604909077286720276e-02
-3.661421239376068115e-01 -3.993661999702453613e-01 -2.983515895903110504e-02
-2.086524069309234619e-01 -1.825703829526901245e-01 8.646147698163986206e-02
3.625789582729339600e-01 1.783127933740615845e-01 8.126557618379592896e-02
-7.832176238298416138e-02 2.084600031375885010e-01 -6.431670486927032471e-02
5.205006003379821777e-01 2.034327536821365356e-01 5.864502862095832825e-02
-8.508464694023132324e-02 -1.068070977926254272e-01 -9.483262896537780762e-02
-2.725925147533416748e-01 -3.506389856338500977e-01 -5.214609950780868530e-02
5.399320274591445923e-02 1.682386398315429688e-01 8.645700663328170776e-02
-7.179952412843704224e-02 1.462631225585937500e-01 8.024776726961135864e-02
1.473538875579833984e-01 1.346533894538879395e-01 9.262766689062118530e-02
-1.319145560264587402e-01 -3.306351900100708008e-01 4.397770389914512634e-02
-1.614394485950469971e-01 2.418919503688812256e-01 9.279019199311733246e-03
2.610214054584503174e-01 2.822306752204895020e-01 7.258549332618713379e-02
1.038445234298706055e-01 3.058818876743316650e-01 5.376522988080978394e-02
2.102688401937484741e-01 3.870857059955596924e-01 -1.296148728579282761e-02
-2.160111963748931885e-01 -6.904382258653640747e-02 -9.326159209012985229e-02
1.875503212213516235e-01 2.734583914279937744e-01 -7.141086459159851074e-02
9.988659992814064026e-03 -3.859578445553779602e-02 -9.678473323583602905e-02
-4.431007802486419678e-01 -5.931310355663299561e-02 -6.300818920135498047e-02
-8.849667385220527649e-03 2.704149782657623291e-01 5.027077347040176392e-02
1.284314692020416260e-01 2.720015347003936768e-01 -6.851964443922042847e-02
1.531851142644882202e-01 2.455225586891174316e-01 -7.660247385501861572e-02
-6.073429584503173828e-01 -3.422611951828002930e-01 1.727501861751079559e-02
3.736600875854492188e-01 1.506830155849456787e-01 8.051522821187973022e-02
-1.400843113660812378e-01 -1.682281345129013062e-01 8.826609700918197632e-02
-1.559305842965841293e-02 7.550148665904998779e-02 9.397064149379730225e-02
-3.372942805290222168e-01 -3.730427622795104980e-01 -4.512818530201911926e-02
4.728448987007141113e-01 4.094558656215667725e-01 1.417100708931684494e-02
2.291244268417358398e-01 3.847534656524658203e-01 2.395482361316680908e-02
-3.363414481282234192e-02 -1.547184437513351440e-01 8.695729076862335205e-02
-6.883323192596435547e-02 2.386407852172851562e-01 5.233167111873626709e-02
-5.159755349159240723e-01 -3.179062604904174805e-01 4.735749959945678711e-02
4.758638329803943634e-03 -2.106172889471054077e-01 7.237298786640167236e-02
1.026724204421043396e-01 1.374736875295639038e-01 9.203968942165374756e-02
7.432989031076431274e-02 -4.269371554255485535e-02 9.422591328620910645e-02
-3.425821661949157715e-01 -2.542098611593246460e-02 -7.706556469202041626e-02
4.746113121509552002e-01 3.910121619701385498e-01 -2.698694914579391479e-02
-1.573706716299057007e-01 -2.400707900524139404e-01 7.721477746963500977e-02
8.876102045178413391e-03 -1.567206978797912598e-01 8.400939404964447021e-02
-8.678705990314483643e-02 2.563672363758087158e-01 -3.903614729642868042e-02
-8.975121378898620605e-02 2.680651247501373291e-01 2.596697770059108734e-02
-1.206749454140663147e-01 1.273524910211563110e-01 7.842273265123367310e-02
2.974216341972351074e-01 3.043361902236938477e-01 -6.564723700284957886e-02
-5.521355867385864258e-01 -3.023037612438201904e-01 -4.904529824852943420e-02
-4.811625778675079346e-01 -2.038481235504150391e-01 -6.814868003129959106e-02
4.793382287025451660e-01 8.738640695810317993e-03 2.858204394578933716e-02
-6.344171762466430664e-01 -3.255900144577026367e-01 -1.019358728080987930e-02
-4.481577873229980469e-01 -1.564831733703613281e-01 6.767354160547256470e-02
-1.198877766728401184e-01 3.186214342713356018e-02 -9.367481619119644165e-02
-1.798208504915237427e-01 1.158767938613891602e-01 7.260554283857345581e-02
1.470502316951751709e-01 -1.833235472440719604e-01 5.852111801505088806e-02
-4.305579960346221924e-01 -3.918748497962951660e-01 3.094644285738468170e-02
-2.940324544906616211e-01 -1.232185512781143188e-01 8.543774485588073730e-02
-1.160973757505416870e-01 2.443017214536666870e-01 3.518927097320556641e-02
-2.912759780883789062e-01 1.645019650459289551e-01 6.557916756719350815e-03
4.633894264698028564e-01 2.990946173667907715e-01 -5.714282393455505371e-02
6.143364310264587402e-01 1.852144747972488403e-01 -1.310597080737352371e-02
4.920580089092254639e-01 1.450438201427459717e-01 -5.712468922138214111e-02
2.052022963762283325e-01 1.073692962527275085e-01 -9.133752435445785522e-02
-2.498476207256317139e-02 2.786356024444103241e-02 -9.726741164922714233e-02
-6.362164616584777832e-01 -3.065844476222991943e-01 -1.703362911939620972e-02
4.698434844613075256e-02 1.092760413885116577e-01 -9.354085475206375122e-02
-2.386768460273742676e-01 -1.221064180135726929e-01 -9.197512269020080566e-02
6.923424452543258667e-02 1.036459952592849731e-01 9.429657459259033203e-02
6.091503426432609558e-02 -1.802301257848739624e-01 7.385273277759552002e-02
-4.847179353237152100e-01 -3.947508335113525391e-01 2.437268942594528198e-02
-3.930512368679046631e-01 -3.993961513042449951e-01 -3.072302788496017456e-02
4.577746689319610596e-01 9.923461824655532837e-02 6.376309692859649658e-02
2.827463746070861816e-01 1.015995442867279053e-01 -8.606123179197311401e-02
1.289717853069305420e-01 1.381917595863342285e-01 -9.172661602497100830e-02
-4.967529177665710449e-01 -1.103737950325012207e-01 5.295764654874801636e-02
2.628012001514434814e-01 -1.330495923757553101e-01 -4.709114134311676025e-02
-4.690242409706115723e-01 2.673479355871677399e-02 -3.791018098127096891e-04
1.876270622014999390e-01 6.869365274906158447e-02 -9.242229908704757690e-02
5.524392724037170410e-01 3.114538788795471191e-01 4.496721550822257996e-02
2.514398694038391113e-01 -1.205585971474647522e-01 5.789493024349212646e-02
1.966161429882049561e-01 -2.047328203916549683e-01 -2.834450267255306244e-02
-3.040994107723236084e-01 1.452297717332839966e-01 2.294755168259143829e-02
2.982464432716369629e-01 3.764491975307464600e-01 -3.852022439241409302e-02
4.391503334045410156e-01 2.728160321712493896e-01 6.721188873052597046e-02
1.272805687040090561e-02 1.067385673522949219e-01 9.232220053672790527e-02
3.599681556224822998e-01 2.378538995981216431e-02 7.194998115301132202e-02
3.598850667476654053e-01 6.592847406864166260e-02 7.764956355094909668e-02
-2.023725211620330811e-01 2.144345492124557495e-01 1.759814284741878510e-02
-1.197346299886703491e-01 6.247761473059654236e-02 8.884555846452713013e-02
-9.549788385629653931e-02 7.420817762613296509e-02 -9.104710817337036133e-02
4.465583562850952148e-01 5.758484080433845520e-02 5.925017967820167542e-02
2.203395664691925049e-01 1.141730695962905884e-01 9.198755025863647461e-02
4.041818678379058838e-01 3.956499099731445312e-01 -2.919505909085273743e-02
-4.201716780662536621e-01 -1.601551771163940430e-01 7.206591218709945679e-02
-4.744821041822433472e-02 -7.586841471493244171e-03 -9.778510034084320068e-02
-9.387139976024627686e-02 2.018225044012069702e-01 -6.398321688175201416e-02
-9.950193017721176147e-02 3.075466863811016083e-02 -9.482376277446746826e-02
1.345407068729400635e-01 3.319123387336730957e-01 4.548195004463195801e-02
-5.944106727838516235e-02 -3.131733834743499756e-01 3.997346758842468262e-02
3.064446449279785156e-01 -1.503403335809707642e-01 -3.066082950681447983e-03
-5.703018307685852051e-01 -2.490404099225997925e-01 -4.941534623503684998e-02
-8.935475349426269531e-02 -1.124713122844696045e-01 -9.447674453258514404e-02
-6.205305084586143494e-02 -1.036681830883026123e-01 9.360556304454803467e-02
-2.656999826431274414e-01 -3.432728648185729980e-01 -5.481615662574768066e-02
-1.441002190113067627e-01 1.460580825805664062e-01 7.068424671888351440e-02
8.545911312103271484e-02 7.809654623270034790e-02 -9.567382931709289551e-02
-3.693388402462005615e-01 3.145143389701843262e-02 -5.960554629564285278e-02
4.873238205909729004e-01 1.287435442209243774e-01 6.077136844396591187e-02
1.346337497234344482e-01 -6.484415382146835327e-02 8.810851722955703735e-02
4.819160103797912598e-01 -5.875284783542156219e-03 -5.050083622336387634e-03
1.744661033153533936e-01 -2.296236157417297363e-01 1.440977584570646286e-02
3.260722756385803223e-01 -1.081871241331100464e-01 -3.584040328860282898e-02
-1.443304568529129028e-01 -3.603088855743408203e-02 9.398081153631210327e-02
-3.851052522659301758e-01 2.147159166634082794e-02 5.378634482622146606e-02
3.340961039066314697e-01 4.046910405158996582e-01 2.102658897638320923e-02
-2.804097533226013184e-01 -2.485290914773941040e-01 -7.976474612951278687e-02
-3.677641972899436951e-02 1.481821835041046143e-01 -8.447828888893127441e-02
-8.513646200299263000e-03 3.156826496124267578e-01 -1.032290048897266388e-02
-5.539873242378234863e-02 -2.897990643978118896e-01 5.222416669130325317e-02
-1.715130209922790527e-01 1.294304579496383667e-01 7.057427614927291870e-02
-7.653705775737762451e-02 -1.252665668725967407e-01 9.196640551090240479e-02
-2.349062114953994751e-01 3.982219099998474121e-02 -8.250012248754501343e-02
1.909832060337066650e-01 3.809877932071685791e-01 -1.552509889006614685e-02
-1.100131794810295105e-01 4.377287626266479492e-02 9.150432050228118896e-02
-3.804738819599151611e-01 -4.164869487285614014e-01 -5.701377056539058685e-03
5.430873110890388489e-02 3.399263918399810791e-01 1.129522733390331268e-02
-1.803871393203735352e-01 1.902856379747390747e-01 4.658733308315277100e-02
3.032053112983703613e-01 6.340069230645895004e-04 -7.513304054737091064e-02
-2.264228165149688721e-01 3.969587385654449463e-02 8.063135296106338501e-02
3.040862977504730225e-01 1.546012014150619507e-01 8.644966781139373779e-02
1.347807645797729492e-01 8.173722028732299805e-02 -9.460667520761489868e-02
1.828711777925491333e-01 3.425122201442718506e-01 4.702333360910415649e-02
-5.342954397201538086e-01 -6.153824180364608765e-02 -2.914055436849594116e-02
4.438433945178985596e-01 2.681074142456054688e-01 -6.369559466838836670e-02
-1.626393944025039673e-01 -2.194499075412750244e-01 8.129666000604629517e-02
1.602992415428161621e-01 -9.928337484598159790e-02 -7.861970365047454834e-02
-6.848511844873428345e-02 2.130935341119766235e-01 -6.432875990867614746e-02
-9.478066861629486084e-02 2.509658411145210266e-02 9.385651350021362305e-02
3.970986902713775635e-01 1.744834929704666138e-01 7.791090756654739380e-02
4.632984399795532227e-01 2.637182474136352539e-01 6.561411917209625244e-02
2.614102661609649658e-01 1.189887821674346924e-01 8.981852978467941284e-02
-2.535074353218078613e-01 1.345632076263427734e-01 5.092302709817886353e-02
-1.284066885709762573e-01 9.579956531524658203e-02 8.337720483541488647e-02
-2.870463430881500244e-01 -1.751594692468643188e-01 -8.753308653831481934e-02
1.009493246674537659e-01 -9.071809798479080200e-02 -8.677252382040023804e-02
8.953113853931427002e-02 8.385353535413742065e-02 9.565250575542449951e-02
1.594907045364379883e-02 -1.385265439748764038e-01 8.656496554613113403e-02
-6.744214147329330444e-02 4.177005961537361145e-02 9.415126591920852661e-02
1.535178869962692261e-01 -6.348769366741180420e-02 8.658523857593536377e-02
-2.896959185600280762e-01 -2.619299478828907013e-02 8.093916624784469604e-02
-4.186497628688812256e-01 -3.712765276432037354e-01 4.175701737403869629e-02
-1.672575175762176514e-01 -5.781008675694465637e-02 9.323929250240325928e-02
2.904014289379119873e-01 -7.632862031459808350e-02 6.326498836278915405e-02
-4.973433911800384521e-01 -1.428529918193817139e-01 5.700061097741127014e-02
3.468831777572631836e-01 2.240609526634216309e-01 -7.689756900072097778e-02
-3.487475514411926270e-01 1.097062453627586365e-01 2.588981389999389648e-02
1.406375616788864136e-01 1.918559521436691284e-01 8.641592413187026978e-02
3.352939784526824951e-01 -1.152482628822326660e-01 2.878371626138687134e-02
1.176567971706390381e-01 -1.826273351907730103e-01 -6.366118043661117554e-02
1.192747876048088074e-01 -6.487147510051727295e-02 8.935551345348358154e-02
5.285898447036743164e-01 3.299727141857147217e-01 4.596122354269027710e-02
5.181871652603149414e-01 6.484705954790115356e-02 3.527341410517692566e-02
-1.687972992658615112e-01 1.858998388051986694e-01 -5.452070012688636780e-02
8.718141168355941772e-02 -2.745624482631683350e-01 -1.498453225940465927e-02
1.567895561456680298e-01 3.760558962821960449e-01 2.109463326632976532e-03
5.585771054029464722e-02 2.127601951360702515e-01 7.817889004945755005e-02
1.529910713434219360e-01 -2.387521415948867798e-01 1.916924118995666504e-02
-4.754191935062408447e-01 -6.148276478052139282e-02 4.941111057996749878e-02
-1.442246288061141968e-01 1.905523091554641724e-01 5.601891875267028809e-02
3.643092215061187744e-01 7.779580354690551758e-02 -7.506691664457321167e-02
-8.588434755802154541e-02 7.973784208297729492e-02 -9.103509038686752319e-02
-3.825319111347198486e-01 1.766845583915710449e-03 -6.426399201154708862e-02
-8.833032846450805664e-02 -2.457744777202606201e-01 7.181931287050247192e-02
-8.050709217786788940e-02 2.719518542289733887e-01 2.661072276532649994e-02
2.006063163280487061e-01 1.550604403018951416e-01 9.062814712524414062e-02
1.779556572437286377e-01 3.632248044013977051e-01 3.264975547790527344e-02
-1.348718255758285522e-01 1.924448460340499878e-01 5.737212672829627991e-02
2.975630164146423340e-01 -6.253470480442047119e-02 -6.297544389963150024e-02
1.184399649500846863e-01 -2.195496857166290283e-01 4.911365732550621033e-02
-3.923120722174644470e-02 -1.572761386632919312e-01 -8.754478394985198975e-02
2.873875200748443604e-01 3.843767344951629639e-01 3.424606844782829285e-02
-6.310307979583740234e-02 2.639991939067840576e-01 3.984338417649269104e-02
2.690505981445312500e-01 -1.295406520366668701e-01 -4.668201878666877747e-02
-1.309083700180053711e-01 -3.339357376098632812e-01 -4.319977387785911560e-02
2.226570621132850647e-02 5.762486532330513000e-02 -9.660784900188446045e-02
-5.684717893600463867e-01 -9.279250353574752808e-02 -2.065171860158443451e-02
-4.125191271305084229e-01 7.598713785409927368e-02 1.675869920291006565e-03
-4.543861746788024902e-01 -2.347311824560165405e-01 -7.074940949678421021e-02
1.710905879735946655e-02 -1.236844211816787720e-01 -8.884673565626144409e-02
-1.412007361650466919e-01 1.476299297064542770e-02 -9.373623877763748169e-02
-2.582923173904418945e-01 -3.315040469169616699e-01 5.623849108815193176e-02
-3.918076753616333008e-01 -3.925822079181671143e-01 3.152148798108100891e-02
1.592240780591964722e-01 -2.041216194629669189e-02 9.100826829671859741e-02
2.118681967258453369e-01 1.501765400171279907e-01 9.073343127965927124e-02
-1.265495717525482178e-01 -3.969239443540573120e-02 9.482412785291671753e-02
-5.985535383224487305e-01 -3.508122265338897705e-01 -2.401476353406906128e-02
-4.268865659832954407e-02 -2.752457857131958008e-01 5.666514858603477478e-02
9.699711203575134277e-02 -1.486481726169586182e-01 7.716718316078186035e-02
-3.814819753170013428e-01 -4.002505540847778320e-01 -2.977097593247890472e-02
4.148802161216735840e-01 4.168258905410766602e-01 4.738931078463792801e-03
-6.264024376869201660e-01 -2.563599050045013428e-01 2.195593155920505524e-02
-1.108695566654205322e-01 -2.949037253856658936e-01 5.797331407666206360e-02
4.013705849647521973e-01 -4.055750742554664612e-02 -3.889365121722221375e-02
-4.196380078792572021e-01 -8.493308722972869873e-02 6.709085404872894287e-02
-4.933436512947082520e-01 -1.556850038468837738e-02 2.370740473270416260e-02
-4.810228943824768066e-01 -2.510352730751037598e-01 6.112476438283920288e-02
-2.020803242921829224e-01 7.413325458765029907e-02 -8.085194975137710571e-02
-3.721715211868286133e-01 -3.224797546863555908e-01 5.942537635564804077e-02
8.164963871240615845e-02 2.630271613597869873e-01 6.715855002403259277e-02
-6.032085418701171875e-01 -1.500686705112457275e-01 -2.199203707277774811e-02
-4.750179052352905273e-01 -3.757258877158164978e-02 4.279463738203048706e-02
-4.805051088333129883e-01 -1.414659172296524048e-01 -6.591146439313888550e-02
3.081798180937767029e-02 -2.459594458341598511e-01 5.648114904761314392e-02
-2.682255208492279053e-01 -8.532971888780593872e-02 8.706937730312347412e-02
2.661274969577789307e-01 1.317594051361083984e-01 8.934636414051055908e-02
-5.212429165840148926e-01 -3.372198939323425293e-01 -4.763653874397277832e-02
4.920256137847900391e-01 7.238652557134628296e-02 -4.457524418830871582e-02
2.253749966621398926e-01 3.387037515640258789e-01 -5.216660723090171814e-02
-2.460397183895111084e-01 1.552769839763641357e-01 4.348810017108917236e-02
3.340827226638793945e-01 -5.297480383887887001e-04 -6.948452442884445190e-02
-3.551301956176757812e-01 -3.041734695434570312e-01 -6.808652728796005249e-02
3.087052106857299805e-01 3.554549217224121094e-01 5.141780525445938110e-02
1.967425197362899780e-01 -6.109143421053886414e-02 -8.071928471326828003e-02
-5.929280519485473633e-01 -1.275082230567932129e-01 1.285051461309194565e-02
5.929538607597351074e-01 1.454111188650131226e-01 2.116212435066699982e-02
-5.070981383323669434e-01 -1.724947392940521240e-01 5.712503194808959961e-02
-1.559407860040664673e-01 2.260256111621856689e-01 -3.534083440899848938e-02
4.756000265479087830e-02 6.869739294052124023e-02 -9.622646868228912354e-02
4.271702766418457031e-01 1.282573342323303223e-01 -6.889855116605758667e-02
-3.602288663387298584e-01 3.972634300589561462e-02 5.521511286497116089e-02
4.709877818822860718e-02 -1.640588939189910889e-01 -7.905133813619613647e-02
5.536158084869384766e-01 1.176822930574417114e-01 3.646472096443176270e-02
-2.391747534275054932e-01 -1.751604974269866943e-01 8.640272915363311768e-02
-4.740435481071472168e-01 -1.114239096641540527e-01 -6.410927325487136841e-02
4.049997329711914062e-01 4.419012367725372314e-02 -6.297149509191513062e-02
-1.329775005578994751e-01 8.905369788408279419e-02 -8.602213114500045776e-02
-2.386579662561416626e-01 -3.879652023315429688e-01 -2.200309373438358307e-02
2.928291447460651398e-03 1.519284695386886597e-01 -8.660094439983367920e-02
-1.040399894118309021e-01 2.624862790107727051e-01 -2.633523009717464447e-02
-5.655975341796875000e-01 -2.774368822574615479e-01 -4.899531975388526917e-02
5.922158360481262207e-01 2.884473800659179688e-01 -3.218981251120567322e-02
2.789896130561828613e-01 1.425891220569610596e-01 8.834587782621383667e-02
-8.942055702209472656e-02 -3.482055962085723877e-01 -1.671013049781322479e-02
3.650034368038177490e-01 -4.143705964088439941e-02 -5.168149247765541077e-02
2.326543778181076050e-01 -1.311600506305694580e-01 5.863430351018905640e-02
-6.169709563255310059e-01 -2.273508310317993164e-01 2.552323229610919952e-02
5.902841687202453613e-01 1.619584560394287109e-01 2.958798967301845551e-02
-1.014918833971023560e-01 -7.264912873506546021e-02 -9.668662399053573608e-02
-8.238486945629119873e-02 -3.468951582908630371e-01 1.356564834713935852e-02
3.144907653331756592e-01 1.596189588308334351e-01 -8.314313739538192749e-02
-5.043648555874824524e-02 -3.367290496826171875e-01 -1.030295621603727341e-02
-4.879674315452575684e-01 -1.641322523355484009e-01 -6.601401418447494507e-02
-3.651245534420013428e-01 -2.484868615865707397e-01 -7.708401978015899658e-02
1.945183426141738892e-02 2.754282206296920776e-02 -9.752143174409866333e-02
-1.157535985112190247e-01 -1.675882190465927124e-01 -8.947937935590744019e-02
7.402405887842178345e-02 3.249650299549102783e-01 3.710443153977394104e-02
-3.159793317317962646e-01 -1.387967169284820557e-01 -8.712008595466613770e-02
4.721357524394989014e-01 2.955578863620758057e-01 -5.663343146443367004e-02
-4.565463215112686157e-02 2.237120121717453003e-01 -6.426844745874404907e-02
-3.712835609912872314e-01 -4.312724620103836060e-02 7.058427482843399048e-02
6.011919975280761719e-01 1.464881598949432373e-01 -5.573073867708444595e-03
-7.073428481817245483e-02 -2.251588553190231323e-01 -7.661022245883941650e-02
-1.980725824832916260e-01 4.379381239414215088e-02 -8.615224808454513550e-02
-5.210572481155395508e-01 -4.427534341812133789e-02 2.237245999276638031e-02
6.320627033710479736e-02 -2.238626778125762939e-01 -5.904850736260414124e-02
-3.505131006240844727e-01 3.464372828602790833e-02 -6.342940032482147217e-02
8.324801921844482422e-02 -1.965860426425933838e-01 -6.523482501506805420e-02
2.157150208950042725e-01 -1.934110969305038452e-01 -2.816414646804332733e-02
-4.270128533244132996e-02 -2.059416323900222778e-01 7.801554352045059204e-02
3.845662772655487061e-01 6.446357071399688721e-02 7.354304939508438110e-02
1.539472043514251709e-01 -2.428939044475555420e-01 -7.936042733490467072e-03
-7.595159113407135010e-03 -2.858770191669464111e-01 -4.477246850728988647e-02
-4.171217605471611023e-02 1.922561824321746826e-01 -7.438039034605026245e-02
-2.945820987224578857e-01 -3.278830945491790771e-01 -6.166772544384002686e-02
1.858030557632446289e-01 2.492289096117019653e-01 7.784000039100646973e-02
-2.798357605934143066e-01 -1.457946002483367920e-01 8.609188348054885864e-02
2.577502429485321045e-01 2.360595762729644775e-01 -7.933861762285232544e-02
-1.532884091138839722e-01 1.993795484304428101e-01 -5.228233709931373596e-02
3.181373775005340576e-01 -9.857302159070968628e-02 4.715030267834663391e-02
9.237207472324371338e-02 5.632030777633190155e-03 -9.568038582801818848e-02
1.163941249251365662e-01 1.736329309642314911e-02 -9.499531984329223633e-02
-2.646704316139221191e-01 1.796042025089263916e-01 -1.561390608549118042e-02
2.660769224166870117e-01 9.056225419044494629e-02 8.933033794164657593e-02
-1.579994559288024902e-01 -2.266139984130859375e-01 7.989130169153213501e-02
1.477755010128021240e-01 4.488075152039527893e-02 9.509599208831787109e-02
4.640052616596221924e-01 2.478338330984115601e-01 -6.308532506227493286e-02
-3.399956971406936646e-02 -3.288684645667672157e-03 -9.784764796495437622e-02
1.561155766248703003e-01 1.800909489393234253e-01 -8.748727291822433472e-02
2.862241566181182861e-01 -9.058336913585662842e-02 5.974883958697319031e-02
-1.901095509529113770e-01 2.265097647905349731e-01 -1.044122222810983658e-02
3.535372316837310791e-01 2.319270279258489609e-04 6.880340725183486938e-02
-3.523304760456085205e-01 -3.842424452304840088e-01 -3.963830694556236267e-02
-1.792648574337363243e-03 3.135754466056823730e-01 1.908696256577968597e-02
7.486898452043533325e-02 2.984965741634368896e-01 -5.284886062145233154e-02
3.680870234966278076e-01 -3.406461328268051147e-02 -5.320021510124206543e-02
-2.272964715957641602e-01 1.755063608288764954e-02 -8.645833283662796021e-02
-4.749610722064971924e-01 -1.711862385272979736e-01 6.355246156454086304e-02
1.916975528001785278e-01 -1.273913830518722534e-01 6.846912205219268799e-02
5.331911444664001465e-01 1.261335462331771851e-01 4.713592305779457092e-02
-2.987946271896362305e-01 -1.224723458290100098e-01 -8.846965432167053223e-02
2.084550261497497559e-01 1.157013624906539917e-01 9.241708368062973022e-02
-6.415850520133972168e-01 -2.990025281906127930e-01 -1.338490564376115799e-02
4.562839269638061523e-01 9.839510917663574219e-02 -5.997085943818092346e-02
1.035756841301918030e-01 1.437814980745315552e-01 -9.112713485956192017e-02
-5.317383408546447754e-01 -2.755742371082305908e-01 5.061823129653930664e-02
1.920523941516876221e-01 -2.208581715822219849e-01 -9.802608750760555267e-03
4.588764309883117676e-01 3.627551794052124023e-01 -4.182298108935356140e-02
-9.283160418272018433e-02 -6.570997089147567749e-02 9.554623067378997803e-02
6.050494909286499023e-01 3.002359867095947266e-01 3.090717270970344543e-02
-2.674753665924072266e-01 -3.999984264373779297e-02 8.479980379343032837e-02
-3.349049091339111328e-01 -3.995573520660400391e-02 7.617756724357604980e-02
3.955514132976531982e-01 1.607553958892822266e-01 -7.482767105102539062e-02
2.113085389137268066e-01 1.280334442853927612e-01 -9.045358002185821533e-02
2.318328712135553360e-03 2.361622154712677002e-01 6.602343171834945679e-02
1.378587335348129272e-01 3.465518951416015625e-01 -3.639972209930419922e-02
-3.517726957798004150e-01 1.076336428523063660e-01 -3.002822399139404297e-02
3.057028353214263916e-01 3.256052434444427490e-01 6.192496046423912048e-02
-9.752444177865982056e-02 -2.687035501003265381e-01 -6.700620055198669434e-02
-2.119029611349105835e-01 -1.293463259935379028e-01 -9.269995987415313721e-02
6.332062482833862305e-01 2.844087779521942139e-01 -1.001100428402423859e-02
-5.475165247917175293e-01 -3.820324838161468506e-01 1.980322971940040588e-02
-7.486752420663833618e-02 -2.193857133388519287e-01 -7.830557972192764282e-02
-1.032271385192871094e-01 1.378746777772903442e-01 7.836951315402984619e-02
-3.235170841217041016e-01 -3.895732760429382324e-01 -3.440620377659797668e-02
-1.483085006475448608e-01 -1.086982786655426025e-01 -9.488844871520996094e-02
5.615939497947692871e-01 8.380934596061706543e-02 -2.407372929155826569e-03
-1.412843316793441772e-01 -1.205325871706008911e-01 -9.426891803741455078e-02
2.751567661762237549e-01 1.673534959554672241e-01 8.751535415649414062e-02
-3.681043088436126709e-01 2.602432854473590851e-02 5.712473765015602112e-02
1.206422448158264160e-01 -2.478818893432617188e-01 2.875724621117115021e-02
-1.635779440402984619e-01 -2.847860157489776611e-01 -6.805001199245452881e-02
-1.936001703143119812e-02 -1.802737861871719360e-01 8.165827393531799316e-02
-8.497848361730575562e-02 -8.719507604837417603e-02 -9.605834633111953735e-02
-2.293938249349594116e-01 -2.903215289115905762e-01 6.788430362939834595e-02
2.360270917415618896e-01 1.803653985261917114e-01 8.791419863700866699e-02
-4.405913129448890686e-02 -9.539259970188140869e-02 9.396529197692871094e-02
-4.131639599800109863e-01 -1.165695302188396454e-02 -5.994649603962898254e-02
-1.571111977100372314e-01 -1.641454100608825684e-01 -9.067387133836746216e-02
-3.525079190731048584e-01 -1.717596501111984253e-01 -8.363253623247146606e-02
-7.414796948432922363e-02 -3.393365740776062012e-01 -2.190852910280227661e-02
4.931288361549377441e-01 3.844437301158905029e-01 -2.819283679127693176e-02
-2.858650684356689453e-01 1.641031354665756226e-01 1.493642106652259827e-02
1.237991079688072205e-01 3.223033845424652100e-01 -4.865769669413566589e-02
2.188219875097274780e-01 8.467459678649902344e-02 -9.069359302520751953e-02
-5.513128638267517090e-01 -3.653898239135742188e-01 2.735935710370540619e-02
1.347871776670217514e-02 6.475580483675003052e-02 -9.615641087293624878e-02
3.725752234458923340e-01 7.945813238620758057e-02 -7.392942905426025391e-02
5.375627279281616211e-01 2.358754128217697144e-01 -5.035102739930152893e-02
1.076102256774902344e-01 2.409819215536117554e-01 7.555738836526870728e-02
-1.350458264350891113e-01 2.341270148754119873e-01 3.533801436424255371e-02
-9.155030548572540283e-02 -2.028317898511886597e-01 8.172858506441116333e-02
2.767993807792663574e-01 -1.691930741071701050e-01 -7.697199005633592606e-03
-4.352715611457824707e-01 -3.637562394142150879e-01 4.379642754793167114e-02
-5.334981679916381836e-01 -8.271101862192153931e-02 -3.904528543353080750e-02
3.581829741597175598e-02 3.116043210029602051e-01 3.640840575098991394e-02
-1.406982690095901489e-01 -2.632402628660202026e-02 9.389641135931015015e-02
1.719776242971420288e-01 -9.364795684814453125e-02 -7.813687622547149658e-02
-5.333057045936584473e-02 -8.499785512685775757e-02 9.480794519186019897e-02
-3.676242232322692871e-01 8.354327082633972168e-02 -3.847663849592208862e-02
-1.752038747072219849e-01 6.232938729226589203e-03 8.981591463088989258e-02
-2.991169095039367676e-01 -2.893986999988555908e-01 -7.198619842529296875e-02
1.174186076968908310e-02 1.637516319751739502e-01 -8.517506718635559082e-02
-3.750757575035095215e-01 9.266453981399536133e-02 -2.751995809376239777e-02
4.037092253565788269e-02 -2.178341001272201538e-01 -6.531085819005966187e-02
-1.913684606552124023e-01 -3.817754983901977539e-01 -1.286290120333433151e-02
1.752288080751895905e-04 6.432498991489410400e-02 9.532461315393447876e-02
-7.632776349782943726e-02 -3.475784957408905029e-01 -5.656827241182327271e-03
-2.005823701620101929e-01 -3.675889223814010620e-02 9.059149771928787231e-02
-2.994137406349182129e-01 -2.022307366132736206e-02 7.896790653467178345e-02
5.088906884193420410e-01 3.907112777233123779e-02 2.755766361951828003e-02
-2.719092369079589844e-01 -1.812434196472167969e-01 8.466148376464843750e-02
7.990766316652297974e-03 -2.665311470627784729e-02 9.686177968978881836e-02
5.884797573089599609e-01 2.039092630147933960e-01 -3.326939791440963745e-02
2.738637328147888184e-01 -1.435551047325134277e-01 3.976881876587867737e-02
2.918864488601684570e-01 3.060385398566722870e-02 8.311350643634796143e-02
3.131269812583923340e-01 -1.408538371324539185e-01 1.784865371882915497e-02
-6.726507097482681274e-02 -1.270716488361358643e-01 9.161296486854553223e-02
2.230214476585388184e-01 1.039748936891555786e-01 9.203346818685531616e-02
-2.673915922641754150e-01 8.265093713998794556e-02 -6.849586963653564453e-02
6.081340312957763672e-01 2.538689970970153809e-01 -2.758826129138469696e-02
-5.330958962440490723e-01 -3.985457420349121094e-01 -1.562879793345928192e-02
-6.454970687627792358e-02 -7.897030562162399292e-02 -9.628973156213760376e-02
1.478935480117797852e-01 3.418375849723815918e-01 4.193879291415214539e-02
1.373085230588912964e-01 -2.170782238245010376e-01 4.502448812127113342e-02
-1.689291000366210938e-01 2.120000123977661133e-01 -4.036922380328178406e-02
2.394873350858688354e-01 -4.829459637403488159e-02 7.891337573528289795e-02
-4.050588011741638184e-01 -1.867424398660659790e-01 -7.835566997528076172e-02
4.787472188472747803e-01 4.122112989425659180e-01 5.094599910080432892e-03
1.300087720155715942e-01 1.207909435033798218e-01 -9.300355613231658936e-02
-2.078005969524383545e-01 -2.987828105688095093e-03 8.773657679557800293e-02
6.802561879158020020e-02 1.886340528726577759e-01 8.385565876960754395e-02
5.524248480796813965e-01 2.868567109107971191e-01 4.846950247883796692e-02
2.626101970672607422e-01 2.138083577156066895e-01 -8.212524652481079102e-02
5.519678592681884766e-01 3.752571344375610352e-01 2.458744123578071594e-02
4.602370858192443848e-01 5.300732702016830444e-02 5.433623492717742920e-02
-1.468254029750823975e-01 -2.554986476898193359e-01 7.324157655239105225e-02
-4.876728355884552002e-01 -4.028646051883697510e-01 -2.250142395496368408e-02
3.682785928249359131e-01 4.141487479209899902e-01 -7.208755239844322205e-03
-4.050213694572448730e-01 -2.700994014739990234e-01 6.753344088792800903e-02
-4.308019876480102539e-01 -1.293341368436813354e-01 -7.393385469913482666e-02
-3.975730389356613159e-02 7.823853194713592529e-02 9.259552508592605591e-02
-8.888481557369232178e-02 -2.220620773732662201e-02 -9.732912480831146240e-02
-1.454460918903350830e-01 1.123224571347236633e-01 -8.055306971073150635e-02
-2.182207107543945312e-01 -2.254695445299148560e-01 8.093782514333724976e-02
3.049749135971069336e-01 2.433495372533798218e-01 7.918705791234970093e-02
2.430604547262191772e-01 1.665681749582290649e-01 8.879842609167098999e-02
5.469906330108642578e-01 3.064444661140441895e-01 4.698625206947326660e-02
4.495651721954345703e-01 3.827072978019714355e-01 3.768700733780860901e-02
2.130557745695114136e-01 -1.284937262535095215e-01 6.397878378629684448e-02
-4.094237983226776123e-01 -3.999981284141540527e-01 -3.033537231385707855e-02
6.990867853164672852e-02 -8.462563902139663696e-02 9.046652168035507202e-02
-6.421075463294982910e-01 -2.323958426713943481e-01 -1.211080513894557953e-02
-2.324293255805969238e-01 -9.421467781066894531e-03 8.589004725217819214e-02
-4.637112319469451904e-01 -4.132253825664520264e-01 8.584425784647464752e-03
-1.694251745939254761e-01 2.361498922109603882e-01 -1.512367930263280869e-02
-6.210773065686225891e-02 -2.249629199504852295e-01 -7.589694857597351074e-02
4.218468442559242249e-02 1.434901952743530273e-01 -8.972276747226715088e-02
1.507700532674789429e-01 1.053605526685714722e-01 9.427751600742340088e-02
-3.890785872936248779e-01 -2.962104678153991699e-01 -6.849720329046249390e-02
-4.968745708465576172e-01 -2.067010700702667236e-01 6.018885970115661621e-02
-2.040368318557739258e-01 -3.749692738056182861e-01 -2.747158333659172058e-02
3.838267326354980469e-01 4.162769317626953125e-01 -1.792331342585384846e-03
3.324765563011169434e-01 -5.620053783059120178e-02 5.916572362184524536e-02
1.837705075740814209e-01 -7.684251666069030762e-02 8.118318766355514526e-02
7.967866957187652588e-02 2.413451671600341797e-01 -7.332360744476318359e-02
2.675024047493934631e-02 -1.984052956104278564e-01 7.316400855779647827e-02
1.507857590913772583e-01 -1.061700880527496338e-01 7.970528304576873779e-02
1.595273017883300781e-01 -1.578311324119567871e-01 6.511999666690826416e-02
-1.386791840195655823e-02 8.242418989539146423e-03 -9.781285375356674194e-02
3.526690006256103516e-01 2.841840088367462158e-01 -6.851572543382644653e-02
5.006890892982482910e-01 4.076623618602752686e-01 -3.929963801056146622e-03
-5.469210147857666016e-01 -1.840751767158508301e-01 -5.384911224246025085e-02
-2.595758736133575439e-01 -1.233817711472511292e-01 8.791529387235641479e-02
2.846130430698394775e-01 3.881725668907165527e-02 8.476012200117111206e-02
-1.430533677339553833e-01 1.009374409914016724e-01 8.082853257656097412e-02
3.663605153560638428e-01 3.432650864124298096e-01 5.642971768975257874e-02
4.749391674995422363e-01 1.835893243551254272e-01 -6.297858059406280518e-02
4.986644536256790161e-02 -1.969550400972366333e-01 7.068204134702682495e-02
-5.451227426528930664e-01 -2.430073320865631104e-01 -5.561573058366775513e-02
3.173884451389312744e-01 2.938642501831054688e-01 -6.781303137540817261e-02
-5.490354299545288086e-01 -3.097062706947326660e-01 -4.849947616457939148e-02
-5.060889720916748047e-01 -2.119712084531784058e-01 5.844763293862342834e-02
-5.110905691981315613e-02 -3.077757358551025391e-01 4.150934889912605286e-02
-4.169064760208129883e-01 -3.332285284996032715e-01 -5.878447368741035461e-02
-3.864731490612030029e-01 -3.391966521739959717e-01 -5.829999968409538269e-02
4.723429381847381592e-01 2.142471224069595337e-01 6.744744628667831421e-02
-6.086510419845581055e-01 -2.569158673286437988e-01 -3.691422194242477417e-02
1.414731293916702271e-01 7.208809256553649902e-02 9.536255151033401489e-02
1.419890522956848145e-01 3.699059188365936279e-01 -1.013657636940479279e-02
1.971168667078018188e-01 3.298739492893218994e-01 -5.365395918488502502e-02
-3.872179090976715088e-01 -3.098390996456146240e-01 -6.579212844371795654e-02
4.237356781959533691e-01 -4.897666350007057190e-02 -2.060249261558055878e-02
4.445919990539550781e-01 1.287742853164672852e-01 -6.577105075120925903e-02
-9.322652965784072876e-02 2.204450219869613647e-01 -5.686258524656295776e-02
4.077125787734985352e-01 3.394186496734619141e-02 6.395323574542999268e-02
-5.415683984756469727e-01 -5.326828733086585999e-02 9.536231867969036102e-03
-2.789958417415618896e-01 -5.683419853448867798e-02 -8.808569610118865967e-02
-1.489761471748352051e-01 2.404540777206420898e-01 2.275503985583782196e-02
3.361260592937469482e-01 1.073616966605186462e-01 8.354142308235168457e-02
-3.036998212337493896e-01 -5.245710909366607666e-02 -8.524407446384429932e-02
-4.297277629375457764e-01 -3.759226500988006592e-01 -4.356712102890014648e-02
5.061543583869934082e-01 6.928976625204086304e-02 4.265777394175529480e-02
3.748153448104858398e-01 2.462412565946578979e-01 -7.262732833623886108e-02
2.487046867609024048e-01 -4.998914897441864014e-02 -7.515732198953628540e-02
5.454015731811523438e-01 1.855618208646774292e-01 5.151407420635223389e-02
-3.927498757839202881e-01 -3.855467140674591064e-01 3.568667545914649963e-02
-9.309943765401840210e-02 2.578248381614685059e-01 3.376143798232078552e-02
-1.254130713641643524e-02 2.743557095527648926e-01 -4.847809672355651855e-02
2.952229604125022888e-02 -1.933148689568042755e-02 9.679847210645675659e-02
-1.727569997310638428e-01 -3.194434940814971924e-01 5.477708578109741211e-02
-1.874980330467224121e-01 -2.923698425292968750e-01 6.547290831804275513e-02
2.042560130357742310e-01 9.427090734243392944e-02 9.298302233219146729e-02
-2.038961797952651978e-01 -1.509207189083099365e-01 -9.165605157613754272e-02
1.594864428043365479e-01 2.585328221321105957e-01 7.460272312164306641e-02
-2.846536636352539062e-01 -4.037368297576904297e-01 7.148379459977149963e-03
1.796186417341232300e-01 -2.825754508376121521e-02 -8.720348030328750610e-02
1.217677220702171326e-01 2.937081158161163330e-01 -6.079945713281631470e-02
1.543857455253601074e-01 2.278441935777664185e-01 -8.021140843629837036e-02
-3.475125432014465332e-01 -3.951510787010192871e-01 2.856958098709583282e-02
-4.514082074165344238e-01 -3.695481121540069580e-01 4.041691124439239502e-02
-1.327858120203018188e-01 2.913082391023635864e-02 9.118078649044036865e-02
4.369667470455169678e-01 1.735672056674957275e-01 7.285691797733306885e-02
-3.402490913867950439e-01 -3.379249274730682373e-01 -5.919865146279335022e-02
3.695874214172363281e-01 2.832112014293670654e-01 7.063610106706619263e-02
-2.725099921226501465e-01 9.124571457505226135e-03 7.888390868902206421e-02
-8.957551419734954834e-02 1.696308851242065430e-01 7.266734540462493896e-02
-1.377599984407424927e-01 -1.105073392391204834e-01 -9.487438946962356567e-02
5.881834626197814941e-01 3.180779814720153809e-01 3.401134163141250610e-02
