-2.677336037158966064e-01 3.310657441616058350e-01 3.055774867534637451e-01
8.261080086231231689e-02 -6.615433096885681152e-01 -1.888658106327056885e-02
1.488251984119415283e-01 -5.902682542800903320e-01 -1.214614436030387878e-01
-5.644948780536651611e-02 -5.323455333709716797e-01 -5.485709905624389648e-01
2.389388680458068848e-01 5.779531598091125488e-01 6.271190941333770752e-02
2.740717828273773193e-01 5.162029266357421875e-01 2.852777019143104553e-02
2.884459197521209717e-01 1.920885294675827026e-01 4.471626281738281250e-01
-1.801262199878692627e-01 5.566611289978027344e-01 -2.106994837522506714e-01
-3.198069036006927490e-01 1.313951313495635986e-01 2.995940446853637695e-01
3.154533505439758301e-01 3.716596662998199463e-01 1.481145322322845459e-01
-2.622566819190979004e-01 4.617899656295776367e-02 -5.819499492645263672e-01
-3.518270552158355713e-01 -1.697595715522766113e-01 1.795712709426879883e-01
3.051178455352783203e-01 -2.790041267871856689e-01 -2.991209179162979126e-02
-3.094345927238464355e-01 -2.787418067455291748e-01 -3.801294863224029541e-01
-3.543500006198883057e-01 -2.092972099781036377e-01 1.164940074086189270e-01
3.102514147758483887e-01 -2.104397267103195190e-01 -2.128617763519287109e-01
3.321624100208282471e-01 2.432579696178436279e-01 -2.356152385473251343e-01
2.597858905792236328e-01 2.553676366806030273e-01 5.022946596145629883e-01
5.971715971827507019e-02 1.179371476173400879e-01 -8.201550245285034180e-01
1.324716061353683472e-01 -1.654460132122039795e-01 7.203366160392761230e-01
3.297712504863739014e-01 2.154604047536849976e-01 2.506923973560333252e-01
-3.106233179569244385e-01 -2.358734048902988434e-02 4.160756170749664307e-01
-1.271058320999145508e-01 6.313053369522094727e-01 -1.348538994789123535e-01
-2.983312308788299561e-01 -1.087656319141387939e-01 4.621101319789886475e-01
-5.171365663409233093e-02 -5.978978872299194336e-01 4.436455667018890381e-01
3.390627205371856689e-01 6.029514968395233154e-02 2.316687703132629395e-01
3.062653839588165283e-01 3.243494033813476562e-01 2.863014936447143555e-01
-2.212000936269760132e-01 1.735862493515014648e-01 5.883010625839233398e-01
-2.786044776439666748e-02 1.598604619503021240e-01 -8.200263381004333496e-01
1.384260803461074829e-01 6.413394808769226074e-01 -3.020006716251373291e-01
-2.583083808422088623e-01 -1.226648464798927307e-01 5.692104697227478027e-01
-2.089328169822692871e-01 3.776900004595518112e-03 -6.948320269584655762e-01
-3.313659429550170898e-01 -1.158385947346687317e-01 3.298794031143188477e-01
-3.189938068389892578e-01 -6.350267678499221802e-02 -4.192366898059844971e-01
1.372142732143402100e-01 -1.900625228881835938e-01 7.054564952850341797e-01
3.321413099765777588e-01 9.506822563707828522e-03 2.674553096294403076e-01
-1.193536594510078430e-01 -2.784033119678497314e-01 -7.358533143997192383e-01
-1.276610139757394791e-02 6.814967989921569824e-01 1.980610042810440063e-01
1.738682836294174194e-01 6.604966521263122559e-01 -2.824482694268226624e-02
-3.303859233856201172e-01 -1.036864221096038818e-01 3.360293209552764893e-01
5.956117436289787292e-02 -4.170460700988769531e-01 6.315369009971618652e-01
-1.447898000478744507e-01 6.131890416145324707e-01 -1.348869055509567261e-01
1.830320507287979126e-01 -4.600210785865783691e-01 3.775699138641357422e-01
-2.578526362776756287e-02 6.901312470436096191e-01 -1.869624406099319458e-01
-2.663134634494781494e-01 4.170093536376953125e-01 7.276443392038345337e-02
-2.221947014331817627e-01 4.535745680332183838e-01 2.700326144695281982e-01
-1.070990934967994690e-01 -3.667948842048645020e-01 -6.909182667732238770e-01
1.328439414501190186e-01 -4.836862981319427490e-01 -4.639772176742553711e-01
2.992113232612609863e-01 -1.895360648632049561e-01 -3.174877464771270752e-01
2.891787290573120117e-01 -3.118996024131774902e-01 -1.512835174798965454e-01
1.389258950948715210e-01 -6.085358262062072754e-01 -5.240947753190994263e-02
-2.969434857368469238e-01 -2.676401734352111816e-01 -4.355922639369964600e-01
3.523439764976501465e-01 7.495808601379394531e-02 -1.049540787935256958e-01
-3.038649260997772217e-01 -2.538330554962158203e-01 3.957458734512329102e-01
-2.991783618927001953e-01 -4.761515855789184570e-01 -2.950804680585861206e-02
1.546410769224166870e-01 1.356863975524902344e-01 -7.469447851181030273e-01
-9.850553423166275024e-02 6.579204797744750977e-01 -1.192638874053955078e-01
-3.391195535659790039e-01 1.195516511797904968e-01 -2.181286215782165527e-01
-8.850713074207305908e-02 2.097852975130081177e-01 -7.777484059333801270e-01
3.505779802799224854e-01 6.175310537219047546e-02 -1.316480487585067749e-01
2.776627540588378906e-01 2.054381370544433594e-01 4.756772518157958984e-01
-7.674983888864517212e-02 6.972451508045196533e-02 -8.201846480369567871e-01
3.077146708965301514e-01 -1.105194687843322754e-01 3.379055261611938477e-01
1.878677457571029663e-01 6.454415321350097656e-01 -7.833398133516311646e-02
2.467457205057144165e-01 -4.262038469314575195e-01 -1.417610198259353638e-01
-3.448249101638793945e-01 1.340550780296325684e-01 -1.199433356523513794e-01
-1.779496967792510986e-01 4.722330570220947266e-01 -4.332660436630249023e-01
-2.491891533136367798e-01 1.620605736970901489e-01 -5.699404478073120117e-01
-1.329468786716461182e-01 -6.766593456268310547e-01 1.520358026027679443e-01
2.044197171926498413e-01 1.354165375232696533e-01 -6.789403557777404785e-01
-2.449658811092376709e-01 -5.281306505203247070e-01 2.686079442501068115e-01
-2.447461932897567749e-01 3.699551224708557129e-01 3.397360146045684814e-01
-2.762833237648010254e-01 2.678532898426055908e-01 3.582652211189270020e-01
-3.369623124599456787e-01 1.706735640764236450e-01 -1.466113030910491943e-01
-2.369211167097091675e-01 -3.006125688552856445e-01 5.532156229019165039e-01
-2.791564464569091797e-01 -2.246028333902359009e-01 -5.142743587493896484e-01
2.342144846916198730e-01 -1.955865621566772461e-01 -5.458835363388061523e-01
-2.233165651559829712e-01 3.666305840015411377e-01 4.173002243041992188e-01
1.560357660055160522e-01 -4.233687222003936768e-01 -5.033059716224670410e-01
3.306394517421722412e-01 -1.690772026777267456e-01 -2.614185959100723267e-02
1.152368709444999695e-01 5.632318854331970215e-01 4.502668082714080811e-01
1.744657307863235474e-01 3.509576320648193359e-01 6.064465045928955078e-01
1.521813422441482544e-01 2.408367097377777100e-01 6.923585534095764160e-01
6.167120859026908875e-02 2.684796750545501709e-01 -7.763530015945434570e-01
3.469460904598236084e-01 -5.494819954037666321e-02 -4.221279919147491455e-02
4.848262295126914978e-02 6.485274434089660645e-01 -3.734436929225921631e-01
3.144851624965667725e-01 1.315676718950271606e-01 3.659421503543853760e-01
2.353498190641403198e-01 -4.221441149711608887e-01 -2.434219270944595337e-01
6.441513448953628540e-02 -1.941568851470947266e-01 7.650367021560668945e-01
-7.159378379583358765e-02 6.242958903312683105e-01 2.970408797264099121e-01
2.168746143579483032e-01 3.515912592411041260e-01 -5.697602033615112305e-01
3.151407837867736816e-02 -5.587506294250488281e-01 -4.836303889751434326e-01
1.211932227015495300e-01 1.705895513296127319e-01 7.446563839912414551e-01
-3.367631137371063232e-01 -1.789294630289077759e-01 -3.112402260303497314e-01
2.710053324699401855e-01 -3.829691112041473389e-01 -1.852856762707233429e-02
2.426985800266265869e-01 -2.501199543476104736e-01 4.709714651107788086e-01
-3.512630164623260498e-01 7.483549416065216064e-02 -1.454913616180419922e-01
-2.971139177680015564e-02 -1.201650276780128479e-01 -8.252806663513183594e-01
-2.782620489597320557e-01 2.392043918371200562e-01 -4.249662458896636963e-01
-1.934239119291305542e-01 3.053632676601409912e-01 -5.957992076873779297e-01
2.030405551195144653e-01 -2.987737059593200684e-01 5.309228301048278809e-01
2.816876769065856934e-01 -1.296481639146804810e-01 4.344776868820190430e-01
1.552252322435379028e-01 -5.908762812614440918e-01 -2.251822873950004578e-02
3.543604612350463867e-01 1.011195331811904907e-01 3.250227496027946472e-02
-1.697323620319366455e-01 3.600058555603027344e-01 5.478797554969787598e-01
-4.051494598388671875e-02 -3.577309250831604004e-01 7.074788212776184082e-01
-2.376567944884300232e-02 -2.247433960437774658e-01 7.760955095291137695e-01
-1.165926642715930939e-02 -6.964994072914123535e-01 1.366707533597946167e-01
2.370331883430480957e-01 -2.256876230239868164e-01 -5.165670514106750488e-01
-1.590857058763504028e-01 -4.510352909564971924e-01 -5.741994976997375488e-01
-3.518445193767547607e-01 -2.624048590660095215e-01 4.796556383371353149e-02
-2.994325757026672363e-01 3.299355804920196533e-01 -1.061906516551971436e-01
-3.572927117347717285e-01 -3.874570131301879883e-02 -1.745172441005706787e-01
-2.280915528535842896e-01 -4.650674760341644287e-01 -4.405635297298431396e-01
3.181756660342216492e-02 5.105516314506530762e-01 5.589841604232788086e-01
1.944382339715957642e-01 -2.237985283136367798e-01 -6.145734786987304688e-01
-3.619663417339324951e-01 -1.110298484563827515e-01 8.044648170471191406e-02
2.239093184471130371e-01 4.924742281436920166e-01 3.695279359817504883e-01
-1.923125088214874268e-01 -6.130837202072143555e-01 2.306555658578872681e-01
1.171206384897232056e-01 6.908051967620849609e-01 -1.392435282468795776e-01
3.261105418205261230e-01 -9.950535744428634644e-02 2.367092072963714600e-01
-3.637221083045005798e-02 -1.667968183755874634e-01 -8.126321434974670410e-01
-7.040486484766006470e-02 -7.066103816032409668e-01 -6.556775420904159546e-02
-2.113206386566162109e-01 -4.882834479212760925e-02 -6.926906108856201172e-01
3.417549431324005127e-01 -9.794858098030090332e-02 3.400619328022003174e-02
-2.243277728557586670e-01 -6.059882044792175293e-01 9.025091677904129028e-02
2.932754456996917725e-01 2.089525759220123291e-01 -4.488294124603271484e-01
-1.899175196886062622e-01 2.845725715160369873e-01 -6.183966994285583496e-01
-2.262518703937530518e-01 4.631686210632324219e-01 -2.745761871337890625e-01
-2.662983834743499756e-01 -3.347859382629394531e-01 4.606354534626007080e-01
-3.455338478088378906e-01 -2.904993593692779541e-01 -1.159298717975616455e-01
1.855071038007736206e-01 -9.932110458612442017e-02 -6.885479092597961426e-01
-1.115665137767791748e-01 -4.379101097583770752e-01 -6.301969289779663086e-01
1.459901034832000732e-01 -2.966318428516387939e-01 -6.449094414710998535e-01
3.113398551940917969e-01 -1.094206720590591431e-01 3.200727999210357666e-01
-3.474568426609039307e-01 1.073641479015350342e-01 -1.415848433971405029e-01
-2.688108682632446289e-01 -4.868541061878204346e-01 -2.707362174987792969e-01
-3.335058987140655518e-01 6.364700198173522949e-02 -3.115587830543518066e-01
2.018322944641113281e-01 -4.904127120971679688e-01 -2.316115945577621460e-01
1.600517332553863525e-01 -5.639764666557312012e-01 1.901895999908447266e-01
-1.929815113544464111e-01 -6.368849277496337891e-01 -1.287401765584945679e-01
-1.102385967969894409e-01 -5.387247800827026367e-01 5.087312459945678711e-01
-1.491136401891708374e-01 6.150680184364318848e-01 -3.339417651295661926e-02
-3.562297821044921875e-01 -6.599650532007217407e-02 1.603551357984542847e-01
-3.599299192428588867e-01 8.840311318635940552e-03 5.827727913856506348e-02
1.817005723714828491e-01 4.119806289672851562e-01 5.480145812034606934e-01
2.344447225332260132e-01 -4.482439160346984863e-01 1.599592864513397217e-01
-3.517060875892639160e-01 -2.488770633935928345e-01 -1.154569685459136963e-01
-2.347872555255889893e-01 2.696146070957183838e-01 -5.329996347427368164e-01
3.084689974784851074e-01 3.767838776111602783e-01 -2.266521304845809937e-01
-2.838059961795806885e-01 3.694757819175720215e-01 -1.399086266756057739e-01
1.744972020387649536e-01 -2.813556492328643799e-01 -6.108149886131286621e-01
-9.828882664442062378e-02 -5.454540848731994629e-01 5.078430175781250000e-01
1.585467755794525146e-01 -2.909552454948425293e-01 6.208116412162780762e-01
1.509425044059753418e-01 -5.407718420028686523e-01 3.048157691955566406e-01
-3.376688063144683838e-02 7.003213167190551758e-01 -4.805454611778259277e-02
1.801074445247650146e-01 5.944242477416992188e-01 -3.304336965084075928e-01
-3.352504074573516846e-01 -3.289630413055419922e-01 1.359173357486724854e-01
2.601921856403350830e-01 -2.490357495844364166e-02 -5.574735403060913086e-01
1.313092857599258423e-01 6.678684949874877930e-01 1.778572946786880493e-01
7.986082136631011963e-02 -4.841909557580947876e-02 7.897951602935791016e-01
3.157043457031250000e-01 1.710696816444396973e-01 -3.721431791782379150e-01
2.701166570186614990e-01 -3.725592792034149170e-01 1.247554644942283630e-01
5.262501537799835205e-02 -1.818158179521560669e-01 -7.918434739112854004e-01
1.806828230619430542e-01 2.389312386512756348e-01 -6.879369616508483887e-01
-1.511604338884353638e-01 -6.577346920967102051e-01 -1.966824829578399658e-01
-2.529085278511047363e-01 -1.281772702932357788e-01 -6.078138947486877441e-01
-6.756338477134704590e-02 -7.001721858978271484e-01 -1.307651400566101074e-01
-2.196340113878250122e-01 4.466647505760192871e-01 -3.450224101543426514e-01
3.402064740657806396e-01 7.399749010801315308e-03 2.062934339046478271e-01
2.493297606706619263e-01 2.816067934036254883e-01 5.138955116271972656e-01
-3.313409388065338135e-01 3.534599021077156067e-02 -3.395965397357940674e-01
3.308877944946289062e-01 -9.797138720750808716e-02 1.994971632957458496e-01
5.743001773953437805e-02 -5.856845900416374207e-02 7.999373078346252441e-01
3.499954044818878174e-01 2.027237266302108765e-01 2.073779702186584473e-02
-2.352568656206130981e-01 -5.971732735633850098e-01 8.406796492636203766e-03
-1.776782572269439697e-01 3.641411066055297852e-01 -5.731427073478698730e-01
-1.674118489027023315e-01 3.074449896812438965e-01 -6.394602060317993164e-01
2.952960133552551270e-01 4.525147378444671631e-01 1.038367375731468201e-01
-2.059146016836166382e-02 -2.003384828567504883e-01 -8.026371598243713379e-01
-3.206197619438171387e-01 2.043060660362243652e-01 2.037046551704406738e-01
2.382583916187286377e-02 1.823506206274032593e-01 -8.159532546997070312e-01
-3.079318106174468994e-01 -9.102702885866165161e-02 -4.607627093791961670e-01
-3.359551727771759033e-01 -2.112044207751750946e-02 -3.336929678916931152e-01
2.424509972333908081e-01 -4.819757118821144104e-02 -5.949975848197937012e-01
8.134911954402923584e-02 -3.178423047065734863e-01 -7.024578452110290527e-01
7.622072100639343262e-02 -3.497159481048583984e-01 6.739908456802368164e-01
3.497164323925971985e-02 -6.162034869194030762e-01 3.677644431591033936e-01
3.186127915978431702e-02 1.507923752069473267e-01 7.924384474754333496e-01
1.944533139467239380e-01 2.406340241432189941e-01 -6.672651767730712891e-01
4.605612531304359436e-02 -4.298799633979797363e-01 -6.362754702568054199e-01
-3.297421634197235107e-01 -1.359508037567138672e-01 -3.636140227317810059e-01
2.569820880889892578e-01 -2.542095482349395752e-01 -4.290923178195953369e-01
-2.435552328824996948e-01 -1.621357947587966919e-01 5.941092967987060547e-01
3.376646339893341064e-01 -1.223374381661415100e-01 5.660699307918548584e-02
1.184887439012527466e-01 -4.416280686855316162e-01 5.417578816413879395e-01
-2.767672240734100342e-01 -2.512669265270233154e-01 -5.076790452003479004e-01
-3.165589570999145508e-01 2.116268873214721680e-01 2.220084220170974731e-01
-1.109468862414360046e-01 -6.945521831512451172e-01 9.244415909051895142e-02
2.168778330087661743e-02 4.540144205093383789e-01 -6.618375778198242188e-01
3.452034592628479004e-01 -4.204992577433586121e-02 1.062081232666969299e-01
-2.357019484043121338e-02 -2.818010449409484863e-01 -7.666276693344116211e-01
3.429980874061584473e-01 -8.536041527986526489e-02 4.936025291681289673e-02
3.406315445899963379e-01 7.151509821414947510e-02 -2.388456612825393677e-01
3.010309040546417236e-01 3.631165921688079834e-01 -2.953677177429199219e-01
1.070050746202468872e-01 -5.692684054374694824e-01 3.557570576667785645e-01
2.854927778244018555e-01 2.255463600158691406e-01 4.427124559879302979e-01
-8.447539061307907104e-02 -8.314795792102813721e-02 -8.158780932426452637e-01
2.404848039150238037e-01 5.767112970352172852e-01 -9.211916476488113403e-02
-1.349798170849680901e-03 -4.917484819889068604e-01 5.878870487213134766e-01
-1.444886922836303711e-01 -3.432064950466156006e-01 6.623545289039611816e-01
2.438493371009826660e-01 5.683003067970275879e-01 -1.162056773900985718e-01
1.492040902376174927e-01 1.626109778881072998e-01 7.208986878395080566e-01
2.359525114297866821e-01 5.813385918736457825e-02 -6.253656148910522461e-01
-1.115039736032485962e-02 3.443887233734130859e-01 -7.431350350379943848e-01
3.934834897518157959e-02 -6.259432435035705566e-01 3.386380970478057861e-01
3.464970290660858154e-01 1.840967684984207153e-01 1.273064762353897095e-01
-6.121696904301643372e-02 4.254880249500274658e-01 6.167183518409729004e-01
3.119702935218811035e-01 -2.984147751703858376e-03 3.715520501136779785e-01
-3.531203567981719971e-01 -7.687951624393463135e-02 1.915950626134872437e-01
1.932452321052551270e-01 -3.333054780960083008e-01 5.206867456436157227e-01
-1.305913627147674561e-01 3.918603360652923584e-01 5.780363082885742188e-01
3.155416846275329590e-01 6.020087376236915588e-02 -3.847741186618804932e-01
4.590938240289688110e-02 6.140545606613159180e-01 4.010560810565948486e-01
-2.352329194545745850e-01 4.862049520015716553e-01 4.152350500226020813e-02
-3.390157818794250488e-01 -3.343983292579650879e-01 -8.297156542539596558e-02
-2.671912312507629395e-01 -4.234704747796058655e-02 5.506865978240966797e-01
-4.681998118758201599e-02 -5.096005797386169434e-01 5.718645453453063965e-01
-1.583885848522186279e-01 4.059197008609771729e-01 5.197764635086059570e-01
-2.870541512966156006e-01 -3.872750699520111084e-01 -3.599433302879333496e-01
2.507086098194122314e-01 2.865435779094696045e-01 -5.366545319557189941e-01
-1.664907783269882202e-01 -4.320733845233917236e-01 5.708637833595275879e-01
5.613542720675468445e-02 -3.087288439273834229e-01 -7.267575860023498535e-01
-2.540680766105651855e-01 1.195201054215431213e-01 5.411427021026611328e-01
2.291741222143173218e-01 5.957216620445251465e-01 2.983631938695907593e-02
-1.252542063593864441e-02 5.846684575080871582e-01 -4.909435212612152100e-01
2.619320750236511230e-01 1.223195716738700867e-01 5.406002402305603027e-01
-3.139224648475646973e-01 -3.156957924365997314e-01 3.040908277034759521e-01
-3.573676049709320068e-01 2.775568142533302307e-02 -1.193219348788261414e-01
3.352207839488983154e-01 1.704285293817520142e-01 2.402284592390060425e-01
3.510206639766693115e-01 -1.183567102998495102e-02 -2.231900021433830261e-02
-7.832262665033340454e-02 -6.684565544128417969e-01 2.684341073036193848e-01
-2.607620656490325928e-01 -1.788670755922794342e-02 5.640086531639099121e-01
-2.345817089080810547e-01 -5.955643057823181152e-01 -6.727281957864761353e-02
1.333304494619369507e-01 5.942975878715515137e-01 3.758313059806823730e-01
-8.966103941202163696e-02 2.447359412908554077e-01 -7.619932293891906738e-01
3.534911572933197021e-01 9.635433554649353027e-02 6.245497614145278931e-02
-2.570894956588745117e-01 3.362493216991424561e-01 3.434657156467437744e-01
1.174584180116653442e-01 -6.099331378936767578e-01 -1.991733610630035400e-01
1.972494274377822876e-01 6.103369593620300293e-01 -2.279963791370391846e-01
2.411077171564102173e-01 4.358537197113037109e-01 4.005786180496215820e-01
4.884951189160346985e-02 -4.922169446945190430e-01 5.600948929786682129e-01
-2.929843962192535400e-01 3.467756509780883789e-01 7.549252361059188843e-02
-2.581597864627838135e-01 4.389761686325073242e-01 -9.480039030313491821e-02
3.015338182449340820e-01 4.093245565891265869e-01 1.785615682601928711e-01
-4.247125238180160522e-02 -6.378392577171325684e-01 -3.640526831150054932e-01
-4.868565127253532410e-02 -3.564307689666748047e-01 -7.198866009712219238e-01
1.104966923594474792e-01 1.580174267292022705e-01 7.560456991195678711e-01
1.140983551740646362e-01 6.889271140098571777e-01 -1.625348031520843506e-01
-2.882225513458251953e-01 -6.772566586732864380e-02 4.948875308036804199e-01
3.222613334655761719e-01 -9.586447477340698242e-02 -2.792851030826568604e-01
1.543117016553878784e-01 -2.519970834255218506e-01 -6.634656786918640137e-01
5.265699699521064758e-02 2.247902750968933105e-01 -7.963677644729614258e-01
2.763275504112243652e-01 4.115500450134277344e-01 3.130356073379516602e-01
5.566523224115371704e-02 -6.135051250457763672e-01 3.468040823936462402e-01
-2.576346695423126221e-02 -6.877831816673278809e-01 1.991516351699829102e-01
-2.948974668979644775e-01 -3.167898356914520264e-01 3.839895129203796387e-01
-2.160212695598602295e-01 -2.414521425962448120e-01 6.205901503562927246e-01
3.281219303607940674e-01 1.130869518965482712e-02 2.930966019630432129e-01
2.631820365786552429e-02 -6.836835145950317383e-01 -1.410211920738220215e-01
1.056184060871601105e-03 4.431112483143806458e-02 8.131781220436096191e-01
-3.757789963856339455e-03 3.616561293601989746e-01 -7.331653237342834473e-01
3.023142516613006592e-01 1.658925041556358337e-02 -4.333225190639495850e-01
1.392175406217575073e-01 -4.889562726020812988e-01 -4.423927664756774902e-01
2.132379412651062012e-01 5.777681469917297363e-01 -2.677135169506072998e-01
-3.205057680606842041e-01 2.576360106468200684e-01 5.644509196281433105e-02
-1.762556582689285278e-01 -4.720208048820495605e-01 5.171580910682678223e-01
3.213202953338623047e-01 -1.561804115772247314e-01 -2.133409827947616577e-01
3.056751787662506104e-01 2.479138225317001343e-01 3.553195595741271973e-01
-7.104628533124923706e-02 -6.890223026275634766e-01 -1.930183172225952148e-01
-2.816738784313201904e-01 -1.131733208894729614e-01 5.116025209426879883e-01
8.033374696969985962e-02 6.279118061065673828e-01 -4.065605998039245605e-01
1.913862079381942749e-01 -1.915480345487594604e-01 6.269744634628295898e-01
1.811861246824264526e-02 5.573762655258178711e-01 -5.423069596290588379e-01
3.471131622791290283e-01 1.562125831842422485e-01 1.413258463144302368e-01
1.204106677323579788e-02 -1.229934915900230408e-01 -8.229849338531494141e-01
2.523917257785797119e-01 5.478773117065429688e-01 1.101083159446716309e-01
1.732901781797409058e-01 8.914637379348278046e-03 -7.282063961029052734e-01
-3.429489433765411377e-01 -2.628927230834960938e-01 1.736919581890106201e-01
3.402678072452545166e-01 -8.639904111623764038e-02 -1.197165399789810181e-01
-1.951576173305511475e-01 -6.288313865661621094e-01 1.559058725833892822e-01
-2.343852221965789795e-01 2.233152836561203003e-01 -5.690355896949768066e-01
4.151953384280204773e-02 -5.959069728851318359e-01 4.046282768249511719e-01
-1.926362067461013794e-01 -3.068177103996276855e-01 6.261416673660278320e-01
-3.095431327819824219e-01 1.156160905957221985e-01 -4.005284905433654785e-01
3.400372266769409180e-01 8.676787465810775757e-02 2.258200496435165405e-01
-1.510333567857742310e-01 1.387345492839813232e-01 -7.466315627098083496e-01
8.418781310319900513e-02 -6.105939149856567383e-01 3.012039661407470703e-01
-3.075183928012847900e-01 -2.636230587959289551e-01 -3.991212248802185059e-01
-3.377721831202507019e-02 8.086367696523666382e-02 8.046944737434387207e-01
-1.994736641645431519e-01 -1.986911296844482422e-01 -6.843818426132202148e-01
2.717446163296699524e-02 -2.250625342130661011e-01 -7.850055694580078125e-01
6.706985831260681152e-02 4.512818455696105957e-01 -6.556667089462280273e-01
2.080769389867782593e-01 -1.224865540862083435e-01 6.268500685691833496e-01
-7.376803457736968994e-02 2.208955883979797363e-01 7.467949390411376953e-01
-1.400109678506851196e-01 -2.664647102355957031e-01 -7.253520488739013672e-01
-8.286663144826889038e-02 -6.490067839622497559e-01 -3.253700435161590576e-01
-7.958535850048065186e-02 3.287086188793182373e-01 6.824702620506286621e-01
2.634448409080505371e-01 -3.565520942211151123e-01 -2.389341741800308228e-01
-2.160692363977432251e-01 4.102125167846679688e-01 3.763670027256011963e-01
2.066827118396759033e-01 2.589756548404693604e-01 6.109780669212341309e-01
-2.089602053165435791e-01 -5.183899402618408203e-01 3.959323763847351074e-01
-1.614737957715988159e-01 -5.769203901290893555e-01 -3.967729806900024414e-01
-1.331731230020523071e-01 1.870707273483276367e-01 7.130526900291442871e-01
-2.026073932647705078e-01 4.066844880580902100e-01 4.212962090969085693e-01
-2.027822285890579224e-01 -6.349557638168334961e-01 4.978609457612037659e-02
2.965070903301239014e-01 -2.801834940910339355e-01 1.689396351575851440e-01
-2.996716499328613281e-01 -1.836839765310287476e-01 4.422852694988250732e-01
-1.277599930763244629e-01 2.708851993083953857e-01 6.757959127426147461e-01
2.111828029155731201e-01 -5.087991952896118164e-01 3.410558030009269714e-02
-1.544361412525177002e-01 -1.601007133722305298e-01 -7.501233816146850586e-01
-2.150523662567138672e-02 5.075544714927673340e-01 5.510692596435546875e-01
1.850070357322692871e-01 2.592377066612243652e-01 6.440789699554443359e-01
-4.181590676307678223e-02 3.323931992053985596e-01 -7.413551211357116699e-01
-7.815974764525890350e-03 1.583398506045341492e-02 8.148623108863830566e-01
-2.894430160522460938e-01 -2.830582857131958008e-01 4.280142486095428467e-01
-3.551819920539855957e-01 -2.413837164640426636e-01 -5.066132918000221252e-02
3.122546672821044922e-01 1.538854837417602539e-01 -3.924636840820312500e-01
-2.762681841850280762e-01 2.120937258005142212e-01 4.163153171539306641e-01
2.420435249805450439e-01 -1.591755002737045288e-01 -5.488028526306152344e-01
-3.391970098018646240e-01 1.697244793176651001e-01 -1.115177199244499207e-01
1.529176253825426102e-02 3.994179964065551758e-01 6.678127050399780273e-01
2.060389071702957153e-01 4.682050347328186035e-01 -4.828686118125915527e-01
-2.686032354831695557e-01 -2.335871309041976929e-01 -5.380881428718566895e-01
2.862012088298797607e-01 4.565723538398742676e-01 1.739380359649658203e-01
-2.303545922040939331e-01 -2.180603891611099243e-01 -6.271229386329650879e-01
-1.863907873630523682e-01 -6.349715590476989746e-01 -1.737837940454483032e-01
3.099619150161743164e-01 2.693626284599304199e-01 -3.471615016460418701e-01
2.526770830154418945e-01 -3.352453932166099548e-02 5.578399896621704102e-01
2.284193187952041626e-01 6.841059774160385132e-02 -6.408075094223022461e-01
-1.650232523679733276e-01 -1.826008409261703491e-02 7.266056537628173828e-01
1.288905441761016846e-01 5.406298637390136719e-01 4.701027274131774902e-01
2.683872580528259277e-01 -3.852496147155761719e-01 7.532455772161483765e-02
-2.528133392333984375e-01 4.538520276546478271e-01 -6.601043511182069778e-03
2.830661237239837646e-01 -8.609464764595031738e-02 -4.666066765785217285e-01
-3.519596159458160400e-01 -2.572617828845977783e-01 6.318557262420654297e-02
1.919764727354049683e-01 -3.786855340003967285e-01 4.738972187042236328e-01
-2.844099104404449463e-01 -1.970134824514389038e-01 4.854357540607452393e-01
-2.917189300060272217e-01 2.695424258708953857e-01 2.841076254844665527e-01
1.162096578627824783e-02 1.647819280624389648e-01 -8.217150568962097168e-01
-8.698369562625885010e-02 -1.594279110431671143e-01 7.781490683555603027e-01
8.218167722225189209e-02 -4.689971506595611572e-01 -5.610077381134033203e-01
1.371511071920394897e-01 -7.480259984731674194e-02 7.400847673416137695e-01
-2.665083408355712891e-01 -4.399147927761077881e-01 -3.642082810401916504e-01
-1.110576689243316650e-01 4.986617565155029297e-01 4.785287678241729736e-01
-1.739089637994766235e-01 2.660871446132659912e-01 6.176264882087707520e-01
-2.828756570816040039e-01 -5.126684308052062988e-01 -5.671417340636253357e-02
3.170723319053649902e-01 -6.349169462919235229e-02 3.209421932697296143e-01
4.333209246397018433e-02 -6.618070006370544434e-01 -2.141896337270736694e-01
-1.832386553287506104e-01 -6.524154543876647949e-01 6.899540871381759644e-02
2.974859178066253662e-01 -2.774061560630798340e-01 -1.729541420936584473e-01
2.772599756717681885e-01 4.701667428016662598e-01 -2.340424358844757080e-01
1.788204312324523926e-01 3.848362863063812256e-01 -6.100863814353942871e-01
-2.128724604845046997e-01 -1.471303254365921021e-01 6.529427766799926758e-01
-2.120527625083923340e-02 3.549441397190093994e-01 -7.339557409286499023e-01
2.726962566375732422e-01 4.880123734474182129e-01 1.798430383205413818e-01
-9.936133399605751038e-03 -3.083550333976745605e-01 7.374990582466125488e-01
-3.009359240531921387e-01 -4.526679217815399170e-01 -1.524377465248107910e-01
-3.189413547515869141e-01 -4.181510806083679199e-01 2.839434891939163208e-02
-2.679181396961212158e-01 -5.030370354652404785e-01 -2.360107749700546265e-01
2.924796938896179199e-01 -3.876769170165061951e-02 -4.538543820381164551e-01
2.699647545814514160e-01 2.725866138935089111e-01 -4.928929805755615234e-01
2.706335186958312988e-01 1.739936023950576782e-01 -5.304999947547912598e-01
-2.531200647354125977e-01 4.240989387035369873e-01 1.756996810436248779e-01
-1.683818995952606201e-01 5.787938833236694336e-02 -7.450606226921081543e-01
2.767483890056610107e-01 4.384686946868896484e-01 -3.024032413959503174e-01
-2.995524704456329346e-01 3.344268798828125000e-01 -6.250251829624176025e-02
-2.432710677385330200e-02 6.375061869621276855e-01 -3.757216930389404297e-01
-3.097435235977172852e-01 -4.374165832996368408e-01 -1.116883009672164917e-01
-1.266332119703292847e-01 3.466149047017097473e-02 7.607638239860534668e-01
-3.191643357276916504e-01 -3.542211949825286865e-01 -2.453657835721969604e-01
6.910587847232818604e-02 4.702504873275756836e-01 5.957382917404174805e-01
-1.855894774198532104e-01 -2.777917981147766113e-01 -6.703335046768188477e-01
-1.971370279788970947e-01 -6.157798171043395996e-01 -2.102339416742324829e-01
4.825828969478607178e-02 6.006214022636413574e-01 -4.726924300193786621e-01
-2.072423398494720459e-01 7.591180503368377686e-02 6.523262262344360352e-01
-1.937467008829116821e-01 1.236746832728385925e-01 6.592285037040710449e-01
-1.971264332532882690e-01 -3.881216645240783691e-01 -5.806831121444702148e-01
-1.490618437528610229e-01 5.568575263023376465e-01 2.891015112400054932e-01
-3.503067791461944580e-01 -9.689231216907501221e-02 2.150714099407196045e-01
1.533488333225250244e-01 -3.998722732067108154e-01 5.318486690521240234e-01
1.814791858196258545e-01 7.527317106723785400e-02 6.961261630058288574e-01
1.282790154218673706e-01 -1.409731060266494751e-01 -7.489192485809326172e-01
-3.084142804145812988e-01 -3.601976037025451660e-01 -2.993806302547454834e-01
9.763731807470321655e-02 -6.450040340423583984e-01 -9.460359066724777222e-02
2.620929479598999023e-02 -6.139658689498901367e-01 3.820497095584869385e-01
1.067758128046989441e-01 -5.618391036987304688e-01 -3.731844723224639893e-01
-1.814598590135574341e-02 5.582259297370910645e-01 4.831153154373168945e-01
-2.429593801498413086e-01 -5.669152140617370605e-01 1.607790589332580566e-01
1.130171641707420349e-01 -4.652760624885559082e-01 5.208538174629211426e-01
-9.515787661075592041e-02 5.638039708137512207e-01 -4.442748129367828369e-01
-3.602406680583953857e-01 -1.896982043981552124e-01 -5.355738848447799683e-02
-1.131289266049861908e-02 6.458567380905151367e-01 -3.651699423789978027e-01
-3.537440598011016846e-01 8.722209930419921875e-02 1.293747406452894211e-02
-2.786489427089691162e-01 -7.048518210649490356e-02 -5.522524118423461914e-01
-1.718491017818450928e-01 2.679342925548553467e-01 -6.598542332649230957e-01
-3.336212038993835449e-01 -2.298071235418319702e-01 2.728900313377380371e-01
3.197876214981079102e-01 3.606319725513458252e-01 1.309431493282318115e-01
1.839053034782409668e-01 6.250894069671630859e-01 1.835862696170806885e-01
-1.015616580843925476e-01 4.987076520919799805e-01 -5.390425324440002441e-01
2.258428931236267090e-01 -3.545657992362976074e-01 4.079948961734771729e-01
2.337378859519958496e-01 3.475781083106994629e-01 5.053944587707519531e-01
-1.775895506143569946e-01 5.647866129875183105e-01 1.369091123342514038e-01
-5.972852185368537903e-02 -2.565374076366424561e-01 -7.745320796966552734e-01
1.300825774669647217e-01 2.526350021362304688e-01 7.088286876678466797e-01
2.240445315837860107e-01 -3.798775672912597656e-01 3.771829009056091309e-01
-3.489690124988555908e-01 1.220780387520790100e-01 -5.544661730527877808e-02
2.894530892372131348e-01 4.485365934669971466e-04 4.594898521900177002e-01
2.784253656864166260e-01 -3.684225678443908691e-02 -5.018357634544372559e-01
-1.516581773757934570e-01 5.126217007637023926e-01 -4.279631674289703369e-01
-1.001418381929397583e-01 3.323805928230285645e-01 6.627219915390014648e-01
-1.457161158323287964e-01 1.512078046798706055e-01 -7.486097812652587891e-01
2.860971093177795410e-01 4.428720474243164062e-01 2.087125927209854126e-01
-3.018174767494201660e-01 2.998773753643035889e-01 1.521693617105484009e-01
1.492786109447479248e-01 3.983739316463470459e-01 -6.380282044410705566e-01
-6.420642882585525513e-02 -5.673516392707824707e-01 -4.965974092483520508e-01
2.773113846778869629e-01 1.123410016298294067e-01 -5.221505761146545410e-01
2.866827249526977539e-01 -4.942962527275085449e-02 4.552507698535919189e-01
-2.095846086740493774e-01 -2.784213423728942871e-01 -6.351812481880187988e-01
-1.993876397609710693e-01 2.186263352632522583e-01 -6.438686847686767578e-01
-4.561767727136611938e-02 4.102825522422790527e-01 -6.827081441879272461e-01
3.391060531139373779e-01 2.905763387680053711e-01 3.336598724126815796e-02
-3.071699738502502441e-01 1.307635307312011719e-01 -4.005710780620574951e-01
2.328937649726867676e-01 3.983336687088012695e-01 4.630644619464874268e-01
3.038124740123748779e-01 -1.161860069260001183e-03 -4.229437410831451416e-01
-3.306236267089843750e-01 -3.853045776486396790e-02 -3.649016916751861572e-01
2.832689583301544189e-01 -2.909419536590576172e-01 2.490113824605941772e-01
-3.044032156467437744e-01 -2.933485805988311768e-01 3.664829730987548828e-01
2.462446838617324829e-01 1.194696798920631409e-01 -6.007180809974670410e-01
-6.913415342569351196e-02 6.397445797920227051e-01 2.561649084091186523e-01
-2.005137205123901367e-01 -5.620466470718383789e-01 3.377173840999603271e-01
-1.328192502260208130e-01 -1.951894611120223999e-01 -7.596192359924316406e-01
-1.018205359578132629e-01 -1.317275762557983398e-01 -7.982418537139892578e-01
2.048742622137069702e-01 6.274867057800292969e-01 -7.006220519542694092e-02
3.418180942535400391e-01 1.766040921211242676e-01 1.840260177850723267e-01
-1.506097018718719482e-01 -6.271699070930480957e-01 2.966654002666473389e-01
2.803151607513427734e-01 -1.865475475788116455e-01 3.979772925376892090e-01
-1.720899716019630432e-02 -5.232741236686706543e-01 5.540438890457153320e-01
3.475018143653869629e-01 2.220587134361267090e-01 4.876601696014404297e-02
2.448024749755859375e-01 5.465823411941528320e-01 1.712577193975448608e-01
-2.737802863121032715e-01 -2.298260331153869629e-01 -5.264372229576110840e-01
2.636236548423767090e-01 5.391573309898376465e-01 3.286669962108135223e-03
7.152277976274490356e-02 -3.307688832283020020e-01 -7.012518644332885742e-01
-2.987518608570098877e-01 1.749353110790252686e-01 3.620730638504028320e-01
-2.791895568370819092e-01 3.726140558719635010e-01 1.333463937044143677e-01
-2.860663235187530518e-01 -2.755373120307922363e-01 4.435900449752807617e-01
3.315482735633850098e-01 1.106246709823608398e-01 2.817619442939758301e-01
-3.434934318065643311e-01 -2.421822398900985718e-01 1.933535039424896240e-01
-8.832075446844100952e-02 4.932880699634552002e-01 5.158125162124633789e-01
1.047906130552291870e-01 6.239758729934692383e-01 3.482417762279510498e-01
3.129264116287231445e-01 1.882445067167282104e-01 3.553508520126342773e-01
-3.035688698291778564e-01 -2.863502129912376404e-02 4.425649046897888184e-01
2.631048262119293213e-01 -1.227725520730018616e-01 4.983811974525451660e-01
-1.285204738378524780e-01 -4.260134696960449219e-01 -6.284330487251281738e-01
-2.698994576930999756e-01 3.762269914150238037e-01 1.991205960512161255e-01
-2.357020378112792969e-01 -4.899384677410125732e-01 -3.847163617610931396e-01
1.053225472569465637e-01 2.990556359291076660e-01 -7.392354607582092285e-01
-3.550576865673065186e-01 -1.355918124318122864e-02 1.538239866495132446e-01
2.652649879455566406e-01 -1.175755113363265991e-01 -5.076321363449096680e-01
2.592244744300842285e-01 3.327241912484169006e-02 -5.702431797981262207e-01
-3.466732501983642578e-01 -2.685119211673736572e-01 -1.494255214929580688e-01
-5.081690475344657898e-02 2.537610828876495361e-01 7.434759736061096191e-01
-2.491009831428527832e-01 -3.654972612857818604e-01 4.804594814777374268e-01
-2.355543076992034912e-01 4.680126011371612549e-01 -1.982052475214004517e-01
-3.012992441654205322e-01 1.492298394441604614e-01 -4.121826887130737305e-01
1.831166744232177734e-01 3.974487632513046265e-02 6.951406002044677734e-01
1.659442037343978882e-01 -4.891904592514038086e-01 3.736346662044525146e-01
-1.396062523126602173e-01 5.323063731193542480e-01 3.693483769893646240e-01
3.113506436347961426e-01 3.160572946071624756e-01 -2.967530190944671631e-01
-2.794892489910125732e-01 3.510444238781929016e-02 -5.390751361846923828e-01
2.860711514949798584e-01 4.557758942246437073e-02 4.764110445976257324e-01
3.382365107536315918e-01 1.401637196540832520e-01 -2.513849437236785889e-01
-1.203980743885040283e-01 4.293464720249176025e-01 -5.978437066078186035e-01
-2.148352861404418945e-01 4.969873428344726562e-01 -2.336097806692123413e-01
-2.175338566303253174e-01 -3.625793159008026123e-01 5.498083829879760742e-01
2.396237403154373169e-01 5.764787793159484863e-01 -1.064426675438880920e-01
-5.602543801069259644e-02 3.756488561630249023e-01 6.635468006134033203e-01
-8.019407838582992554e-02 -6.904734969139099121e-01 -1.786450743675231934e-01
-3.148887455463409424e-01 -4.709260538220405579e-04 3.942827880382537842e-01
1.834846138954162598e-01 -4.960699975490570068e-01 -3.007870912551879883e-01
-1.640115529298782349e-01 -5.557635426521301270e-01 4.223379492759704590e-01
-1.504317391663789749e-03 -4.070042967796325684e-01 6.694582700729370117e-01
-2.465374320745468140e-01 -1.355471462011337280e-01 -6.198323369026184082e-01
2.307707220315933228e-01 2.788602411746978760e-01 -5.857723951339721680e-01
-2.509692907333374023e-01 3.651584088802337646e-01 -3.687139153480529785e-01
3.362082242965698242e-01 2.972312867641448975e-01 -1.058000326156616211e-01
-2.722559869289398193e-01 4.090135991573333740e-01 1.169427949935197830e-02
1.695302128791809082e-01 -5.366559624671936035e-01 2.444227784872055054e-01
3.532826006412506104e-01 1.375613212585449219e-01 4.472569003701210022e-02
-6.954324245452880859e-02 -4.316675364971160889e-01 6.455274224281311035e-01
-3.550598919391632080e-01 -1.283436715602874756e-01 1.672521084547042847e-01
3.121716380119323730e-01 -2.267087996006011963e-01 -1.568019092082977295e-01
1.046248823404312134e-01 2.188647836446762085e-01 7.417013049125671387e-01
-2.107436954975128174e-01 -6.117324233055114746e-01 1.561380922794342041e-01
2.171626091003417969e-01 -4.494790732860565186e-01 -2.695694267749786377e-01
8.339288085699081421e-02 4.033090472221374512e-01 6.498966217041015625e-01
-1.350151896476745605e-01 6.213209033012390137e-01 -1.512700617313385010e-01
-1.255095899105072021e-01 -6.905419230461120605e-01 7.035528868436813354e-02
-4.769817367196083069e-02 4.957153201103210449e-01 5.502520799636840820e-01
2.006901502609252930e-01 5.983318090438842773e-01 2.125471383333206177e-01
-3.179847896099090576e-01 6.951574236154556274e-03 -4.136313199996948242e-01
2.022900432348251343e-01 -3.935981094837188721e-01 4.267652034759521484e-01
1.926723569631576538e-01 5.062434673309326172e-01 4.223220944404602051e-01
-2.226665467023849487e-01 -1.928625442087650299e-02 6.426796317100524902e-01
3.439064323902130127e-01 1.061085164546966553e-01 1.920049786567687988e-01
-1.425180435180664062e-01 -2.209086269140243530e-01 -7.423613667488098145e-01
-3.640466928482055664e-01 -9.656635671854019165e-02 -6.127637997269630432e-02
1.248510107398033142e-01 -6.116185188293457031e-01 1.557480245828628540e-01
-6.533951312303543091e-02 5.103132128715515137e-01 5.171255469322204590e-01
1.663936674594879150e-01 -2.441876530647277832e-01 6.392086744308471680e-01
2.837767302989959717e-01 -1.847392916679382324e-01 -3.955136239528656006e-01
2.761848568916320801e-01 4.893644154071807861e-02 -5.256568789482116699e-01
2.345761656761169434e-01 2.417874336242675781e-01 5.669621229171752930e-01
2.082526832818984985e-01 5.030434131622314453e-01 3.931178450584411621e-01
2.459236234426498413e-01 5.626085400581359863e-01 -1.307158470153808594e-01
3.074820935726165771e-01 4.228247106075286865e-01 -1.017014756798744202e-01
-1.314382106065750122e-01 5.930664539337158203e-01 2.411398142576217651e-01
2.338571101427078247e-01 4.393112957477569580e-01 -4.512954950332641602e-01
3.381873965263366699e-01 2.386389523744583130e-01 1.627305299043655396e-01
9.743129462003707886e-02 3.566963672637939453e-01 6.762176752090454102e-01
3.478575646877288818e-01 2.065323889255523682e-01 -9.927099198102951050e-02
2.519860863685607910e-01 1.369636505842208862e-01 -5.853040814399719238e-01
-3.610648810863494873e-01 1.153736282140016556e-02 9.249123744666576385e-03
-3.292037844657897949e-01 -9.054454416036605835e-02 -3.734131157398223877e-01
-2.114864736795425415e-01 3.745732605457305908e-01 4.403938949108123779e-01
1.674247533082962036e-01 6.340181827545166016e-01 2.079387158155441284e-01
8.627537637948989868e-02 2.622238099575042725e-01 -7.677139639854431152e-01
-3.551079034805297852e-01 -2.450209110975265503e-01 -2.287041768431663513e-02
-3.208361864089965820e-01 -3.753354847431182861e-01 1.725138872861862183e-01
-3.196151852607727051e-01 -3.635429143905639648e-01 2.058361023664474487e-01
-3.225125074386596680e-01 -2.053373726084828377e-03 3.620595633983612061e-01
-2.556312382221221924e-01 -2.822907567024230957e-01 -5.438492894172668457e-01
-1.961979269981384277e-01 -6.281320452690124512e-01 -1.605160981416702271e-01
2.583115696907043457e-01 2.138024419546127319e-01 5.248653888702392578e-01
6.640122830867767334e-02 -6.695301532745361328e-01 -7.943982630968093872e-02
-9.194105863571166992e-02 -5.377587303519248962e-02 7.895413041114807129e-01
-2.431378364562988281e-01 -5.829718708992004395e-01 -7.013756036758422852e-02
-1.124148592352867126e-01 6.384753584861755371e-01 1.258969604969024658e-01
1.172672808170318604e-01 5.954521298408508301e-01 3.931703865528106689e-01
2.742359936237335205e-01 -2.695153057575225830e-01 -3.403566777706146240e-01
2.699191272258758545e-01 -3.019251525402069092e-01 3.061496913433074951e-01
-1.833212673664093018e-01 2.525883018970489502e-01 -6.513092517852783203e-01
-1.460219174623489380e-01 -5.923419594764709473e-01 -3.902920484542846680e-01
-3.615561425685882568e-01 -1.214049197733402252e-02 -8.342502266168594360e-02
-3.399238884449005127e-01 -3.252994716167449951e-01 8.038702607154846191e-02
4.609996452927589417e-03 -6.722710728645324707e-01 2.378538101911544800e-01
-2.694845199584960938e-01 2.115405164659023285e-02 5.356056094169616699e-01
1.541820615530014038e-01 -5.680378079414367676e-01 2.046924829483032227e-01
2.189518809318542480e-01 -3.244824111461639404e-01 4.656419157981872559e-01
2.678670361638069153e-02 6.891474127769470215e-01 -2.468754053115844727e-01
2.277094274759292603e-01 5.990154743194580078e-01 7.426182739436626434e-03
-1.556843519210815430e-01 3.979994729161262512e-02 7.311955690383911133e-01
-2.009900212287902832e-01 2.412452250719070435e-01 -6.275332570075988770e-01
-3.257662057876586914e-02 5.289347767829895020e-01 5.172650218009948730e-01
2.656011581420898438e-01 4.210718572139739990e-01 3.415153920650482178e-01
3.316992819309234619e-01 -1.486627608537673950e-01 -1.059284210205078125e-01
2.896413505077362061e-01 3.742902874946594238e-01 -3.373474478721618652e-01
1.705027967691421509e-01 -7.048302888870239258e-02 -7.187328934669494629e-01
3.238426446914672852e-01 3.217523694038391113e-01 -2.024260461330413818e-01
1.867216229438781738e-01 -5.486255884170532227e-01 9.978401474654674530e-03
9.497516602277755737e-02 -5.349344611167907715e-01 4.457513391971588135e-01
-2.008098363876342773e-01 -8.367029577493667603e-02 -7.067610621452331543e-01
-3.475337028503417969e-01 -2.807319164276123047e-01 8.458475768566131592e-02
-3.067484125494956970e-02 -5.027201771736145020e-01 5.803942680358886719e-01
-2.442846149206161499e-01 -5.832660198211669922e-01 3.205950558185577393e-02
8.371874690055847168e-02 7.051362395286560059e-01 -1.203951239585876465e-01
2.760238647460937500e-01 -3.075030744075775146e-01 2.623285055160522461e-01
2.047579362988471985e-02 5.284628868103027344e-01 5.363947153091430664e-01
-3.563856184482574463e-01 -2.038790583610534668e-01 -1.201419308781623840e-01
3.482910096645355225e-01 -3.142137080430984497e-02 -7.546823471784591675e-02
3.287594616413116455e-01 -1.672114729881286621e-01 -9.818211197853088379e-02
-2.745457887649536133e-01 -5.308340787887573242e-01 -4.286859184503555298e-02
2.307795882225036621e-01 2.058928459882736206e-01 -6.153115034103393555e-01
1.775491088628768921e-01 5.370028018951416016e-01 -4.458729326725006104e-01
-1.714448183774948120e-01 5.827473998069763184e-01 -1.258003860712051392e-01
2.902819812297821045e-01 8.525924384593963623e-02 -4.832569360733032227e-01
-3.164609968662261963e-01 1.742956042289733887e-02 3.824426233768463135e-01
-4.150462523102760315e-02 5.326977968215942383e-01 5.060338377952575684e-01
-2.982240542769432068e-02 -7.010104656219482422e-01 1.245000883936882019e-01
-3.300705552101135254e-01 2.247500866651535034e-01 -5.613694898784160614e-03
-3.439750373363494873e-01 -4.841802641749382019e-02 2.574417591094970703e-01
3.257399499416351318e-01 -1.931429803371429443e-01 -3.729214146733283997e-02
2.976068854331970215e-01 5.470683053135871887e-02 4.380090832710266113e-01
2.986496388912200928e-01 -1.092897802591323853e-01 -3.930982649326324463e-01
3.536500036716461182e-01 3.464860469102859497e-02 7.235375232994556427e-03
-1.710317730903625488e-01 5.861780047416687012e-01 -9.673852473497390747e-02
1.485110372304916382e-01 2.288879603147506714e-01 7.009032964706420898e-01
-1.267138570547103882e-01 5.870995521545410156e-01 -3.248827159404754639e-01
-2.236086428165435791e-01 -3.515442013740539551e-01 -5.643715858459472656e-01
-2.150540053844451904e-01 4.332362413406372070e-01 3.404344618320465088e-01
3.252663016319274902e-01 -1.662397831678390503e-01 1.445675194263458252e-01
3.266130685806274414e-01 3.556329607963562012e-01 -6.562206894159317017e-02
1.619395762681961060e-01 -5.550851821899414062e-01 -2.153472304344177246e-01
-2.063039392232894897e-01 -5.300047993659973145e-01 3.831084370613098145e-01
1.474773436784744263e-01 6.361383795738220215e-01 2.528564631938934326e-01
-2.798561453819274902e-01 1.379022747278213501e-01 -4.972609281539916992e-01
1.863215863704681396e-01 -2.417830377817153931e-01 -6.179155111312866211e-01
-3.601821660995483398e-01 -1.143496334552764893e-01 -1.405624598264694214e-01
-2.257182896137237549e-01 -9.220311045646667480e-02 -6.658685803413391113e-01
-3.125873804092407227e-01 2.350080758333206177e-01 -2.536264657974243164e-01
1.758622378110885620e-01 -5.617251992225646973e-01 6.600405275821685791e-02
3.122041225433349609e-01 -2.384365200996398926e-01 -1.185607388615608215e-01
-2.509817779064178467e-01 -2.160841673612594604e-01 5.629376769065856934e-01
2.108767330646514893e-01 -4.151897430419921875e-01 3.656498789787292480e-01
6.676661223173141479e-02 -6.342386603355407715e-01 2.672634124755859375e-01
-1.362358033657073975e-01 5.293952822685241699e-01 -4.318571090698242188e-01
2.256115525960922241e-01 -4.087397456169128418e-01 3.204539418220520020e-01
1.413424611091613770e-01 -1.377253560349345207e-03 7.445421218872070312e-01
-1.628854870796203613e-01 7.703983038663864136e-02 7.156291007995605469e-01
1.564238816499710083e-01 5.349689126014709473e-01 4.433533549308776855e-01
2.089666873216629028e-01 6.136398315429687500e-01 -1.486196219921112061e-01
2.268189191818237305e-01 -4.724707901477813721e-01 1.132742241024971008e-01
-2.439426034688949585e-01 5.956191942095756531e-02 5.865840911865234375e-01
-2.630391120910644531e-01 -4.389492869377136230e-01 3.618724942207336426e-01
-2.821655869483947754e-01 -2.714753150939941406e-01 4.579621553421020508e-01
3.236589133739471436e-01 8.242131024599075317e-02 -3.468196988105773926e-01
-1.837737858295440674e-01 2.073294296860694885e-02 -7.302158474922180176e-01
