-1.572523117065429688e-01 -7.278759777545928955e-02 1.694466620683670044e-01
-9.747391343116760254e-01 -3.173479111865162849e-03 -6.860922276973724365e-02
2.742570340633392334e-01 7.665287703275680542e-02 -9.736610949039459229e-02
-1.718910038471221924e-01 7.208224385976791382e-02 -1.609592139720916748e-01
5.912035107612609863e-01 -2.955940365791320801e-02 -2.173773646354675293e-01
-7.425454258918762207e-01 2.960807830095291138e-02 1.740542203187942505e-01
-7.664015293121337891e-01 -4.613913595676422119e-02 -1.179815381765365601e-01
-2.113458700478076935e-02 -3.839750215411186218e-02 2.807008922100067139e-01
-4.255830943584442139e-01 -7.350558787584304810e-02 -1.167042925953865051e-01
7.045223712921142578e-01 3.485801815986633301e-02 -1.524878740310668945e-01
-1.145710274577140808e-01 8.520387858152389526e-02 6.694993376731872559e-02
8.401604294776916504e-01 4.218171536922454834e-02 2.441358007490634918e-02
2.512799799442291260e-01 -8.711947500705718994e-02 -2.040461078286170959e-02
1.430714279413223267e-01 -2.657540515065193176e-02 2.963872849941253662e-01
6.836895942687988281e-01 -3.965738415718078613e-02 -1.701017618179321289e-01
-2.443100810050964355e-01 -5.953211337327957153e-02 -2.203444093465805054e-01
-6.345319151878356934e-01 6.384646147489547729e-02 8.692876249551773071e-02
2.026698887348175049e-01 -5.759335681796073914e-02 -2.270564138889312744e-01
5.672945454716682434e-02 8.662151545286178589e-02 -7.477141916751861572e-03
-8.601216077804565430e-01 4.398041591048240662e-02 3.609096631407737732e-02
-6.697220206260681152e-01 -5.135101824998855591e-02 1.291227489709854126e-01
2.779817283153533936e-01 8.067442476749420166e-02 -4.987348243594169617e-02
-8.439936637878417969e-01 -4.238062724471092224e-02 -6.994386762380599976e-02
-4.414516389369964600e-01 -4.590208455920219421e-02 2.200106680393218994e-01
-1.720153912901878357e-02 4.946294054388999939e-02 -2.459938228130340576e-01
-8.305680751800537109e-02 -8.906903117895126343e-02 6.347681395709514618e-03
5.450326204299926758e-01 7.051417231559753418e-02 2.711143903434276581e-02
4.311382770538330078e-01 -6.659825146198272705e-02 -1.571895182132720947e-01
-6.436597704887390137e-01 -3.288157284259796143e-02 1.966578811407089233e-01
-6.746178865432739258e-01 6.435796618461608887e-02 -4.881463944911956787e-02
6.210516691207885742e-01 -7.134753465652465820e-02 2.661463990807533264e-02
2.306253015995025635e-01 -5.632206448353827000e-04 3.064060211181640625e-01
-6.795749068260192871e-01 -6.110569834709167480e-02 5.537660047411918640e-02
2.434406243264675140e-02 8.694011718034744263e-02 -8.758709300309419632e-04
-6.283762454986572266e-01 -4.960792139172554016e-02 1.547093838453292847e-01
1.830427348613739014e-01 8.493873476982116699e-02 1.655259355902671814e-02
-8.254472613334655762e-01 -4.031413048505783081e-02 8.244054019451141357e-02
-6.849832534790039062e-01 -2.278187125921249390e-02 -2.156853824853897095e-01
-8.021083474159240723e-01 -2.852356992661952972e-02 -1.598627269268035889e-01
-7.289288192987442017e-02 -8.271132409572601318e-02 -1.180735975503921509e-01
-2.677765190601348877e-01 -7.736045867204666138e-02 -1.326455622911453247e-01
-7.845619916915893555e-01 -3.728714585304260254e-02 1.245842054486274719e-01
-3.632509112358093262e-01 -6.261160969734191895e-02 1.821421682834625244e-01
-5.397095084190368652e-01 -7.362280786037445068e-02 1.744082942605018616e-02
-7.638929039239883423e-02 -4.777786880731582642e-02 -2.608274519443511963e-01
6.534083485603332520e-01 4.978355020284652710e-03 2.418759912252426147e-01
6.229801103472709656e-02 2.437431551516056061e-02 -2.879027724266052246e-01
-4.021984040737152100e-01 -6.748215109109878540e-02 1.500405222177505493e-01
-6.666253209114074707e-01 1.967419683933258057e-02 -2.240133434534072876e-01
-5.344700217247009277e-01 1.230516005307435989e-02 2.536652386188507080e-01
-5.812021493911743164e-01 -3.099058941006660461e-02 -2.316938787698745728e-01
3.643592298030853271e-01 7.462856918573379517e-02 1.119574531912803650e-01
-5.056641697883605957e-01 -5.270945653319358826e-02 -1.978691667318344116e-01
2.844298481941223145e-01 -4.561205208301544189e-02 -2.475482672452926636e-01
3.935246467590332031e-01 7.415016740560531616e-02 -7.694432139396667480e-02
3.424499034881591797e-01 -5.929403379559516907e-02 2.143525779247283936e-01
-2.214800268411636353e-01 -6.302352249622344971e-02 -2.106916010379791260e-01
3.167438134551048279e-02 -8.698468655347824097e-02 7.433620095252990723e-02
-6.687906980514526367e-01 -4.299085959792137146e-02 1.616355627775192261e-01
3.149029910564422607e-01 -1.046893536113202572e-03 -2.834020853042602539e-01
-8.027807474136352539e-01 -2.900692448019981384e-02 1.391554474830627441e-01
-2.797741889953613281e-01 1.543141994625329971e-02 2.914740741252899170e-01
-7.594258189201354980e-01 -3.999580442905426025e-02 1.291874498128890991e-01
7.400774955749511719e-02 2.986807003617286682e-02 2.937429249286651611e-01
6.894611716270446777e-01 5.909936502575874329e-02 4.625528305768966675e-02
5.417957901954650879e-01 -7.416503876447677612e-02 7.172422856092453003e-02
-5.377069711685180664e-01 5.504715442657470703e-02 -1.767728626728057861e-01
6.462830901145935059e-01 4.413365386426448822e-04 -2.185807675123214722e-01
-8.212671279907226562e-01 5.101358890533447266e-02 -1.107909157872200012e-02
-3.062715232372283936e-01 4.848555848002433777e-02 2.412695735692977905e-01
7.710479497909545898e-01 4.521902278065681458e-02 1.050765365362167358e-01
5.570833086967468262e-01 -7.291954010725021362e-02 -6.137401610612869263e-02
-4.366445541381835938e-01 -6.141696497797966003e-02 1.697015613317489624e-01
3.282608389854431152e-01 -8.322716504335403442e-02 7.014322280883789062e-02
7.764582037925720215e-01 5.016814544796943665e-02 4.321875423192977905e-02
1.971855759620666504e-02 -8.168059587478637695e-02 -1.288333237171173096e-01
-2.374678105115890503e-01 -3.610169142484664917e-02 -2.745564877986907959e-01
6.121149063110351562e-01 6.285093724727630615e-02 8.838231861591339111e-02
-3.027595281600952148e-01 -7.945980131626129150e-02 9.597244858741760254e-02
-1.125549376010894775e-01 -5.153352767229080200e-02 2.494883090257644653e-01
1.338699162006378174e-01 4.894792288541793823e-02 2.575733065605163574e-01
-8.484948277473449707e-01 4.709538072347640991e-02 1.168519910424947739e-02
-3.283691108226776123e-01 3.585758805274963379e-02 2.636896967887878418e-01
9.593080878257751465e-01 1.507910620421171188e-02 3.607211261987686157e-02
-2.674560844898223877e-01 -7.919558882713317871e-02 1.087362021207809448e-01
3.271891474723815918e-01 -7.911537587642669678e-02 -1.075665652751922607e-01
-2.637479603290557861e-01 8.139882236719131470e-02 8.792376518249511719e-02
3.658657073974609375e-01 -7.968975603580474854e-02 -9.001993387937545776e-02
-5.369570851325988770e-01 6.936378777027130127e-02 -9.736340492963790894e-02
5.657314062118530273e-01 2.176369167864322662e-02 -2.233523726463317871e-01
-8.718093633651733398e-01 -2.470853738486766815e-02 -1.276902854442596436e-01
-2.476450055837631226e-01 6.721186637878417969e-02 1.870398074388504028e-01
-3.681845068931579590e-01 -6.966782361268997192e-02 -1.587814539670944214e-01
-5.689097046852111816e-01 4.613873362541198730e-02 -1.983546614646911621e-01
5.628420710563659668e-01 6.425660103559494019e-02 1.096099913120269775e-01
-7.425466924905776978e-02 8.695632964372634888e-02 -9.640198200941085815e-03
3.804641067981719971e-01 -7.186559587717056274e-02 1.528896540403366089e-01
5.208967328071594238e-01 -7.646500319242477417e-02 -3.990858420729637146e-02
3.760042786598205566e-01 -8.315023034811019897e-02 4.370433464646339417e-02
-3.915161788463592529e-01 6.649433076381683350e-02 -1.607439219951629639e-01
-2.330654114484786987e-01 6.965658813714981079e-02 -1.684362739324569702e-01
-2.126785367727279663e-01 5.673191323876380920e-02 -2.212259918451309204e-01
-7.964537739753723145e-01 -1.420128857716917992e-03 -1.924373358488082886e-01
1.645966768264770508e-01 8.120939135551452637e-02 -8.107163012027740479e-02
-5.112512707710266113e-01 2.458896487951278687e-02 2.485825717449188232e-01
-9.870672225952148438e-02 -8.593621850013732910e-02 -8.229482918977737427e-02
3.288014605641365051e-02 -7.094856351613998413e-02 -1.896170675754547119e-01
5.970264673233032227e-01 -6.790958344936370850e-02 1.013270840048789978e-01
6.397832036018371582e-01 -6.284962594509124756e-02 1.157262846827507019e-01
1.849196404218673706e-01 -7.696384936571121216e-02 -1.491564214229583740e-01
7.722036838531494141e-01 3.150169551372528076e-02 1.633181571960449219e-01
6.113421320915222168e-01 3.396073356270790100e-02 2.182951271533966064e-01
-5.598274469375610352e-01 5.870413407683372498e-02 -1.548277735710144043e-01
8.044283390045166016e-01 3.383280709385871887e-02 -1.023606434464454651e-01
5.983473658561706543e-01 -1.702160015702247620e-02 2.508276104927062988e-01
7.324429750442504883e-01 -4.857850819826126099e-02 -1.206465661525726318e-01
-2.541463375091552734e-01 -8.065707981586456299e-02 9.925092756748199463e-02
5.120441317558288574e-02 8.293796330690383911e-02 -8.065440505743026733e-02
4.510274901986122131e-02 4.199764505028724670e-02 2.749685049057006836e-01
5.552862286567687988e-01 2.131778374314308167e-02 -2.265334576368331909e-01
-9.635464549064636230e-01 2.008807472884654999e-02 3.075298294425010681e-02
-7.519309967756271362e-02 8.503429591655731201e-02 7.387144863605499268e-02
-4.070680588483810425e-02 8.523195236921310425e-02 7.229056954383850098e-02
-3.029806017875671387e-01 8.170039206743240356e-02 7.070763409137725830e-02
-7.186522483825683594e-01 -4.883444681763648987e-02 -1.339479088783264160e-01
2.636855840682983398e-01 -4.506094008684158325e-02 -2.510367929935455322e-01
9.626181721687316895e-01 -2.098535932600498199e-02 -1.003070268779993057e-02
-4.556200504302978516e-01 -3.082478418946266174e-02 2.475816905498504639e-01
-2.794901430606842041e-01 -3.250036761164665222e-02 2.719266712665557861e-01
-6.649031043052673340e-01 -6.177616864442825317e-02 -8.163756877183914185e-02
1.821862757205963135e-01 4.362224787473678589e-02 -2.488691359758377075e-01
6.024100184440612793e-01 3.317330032587051392e-02 2.224575877189636230e-01
-3.933574855327606201e-01 4.985969886183738708e-02 2.245731651782989502e-01
5.957551002502441406e-01 -6.108789145946502686e-02 -1.290602684020996094e-01
6.808508187532424927e-02 -8.336841315031051636e-02 -1.137156710028648376e-01
6.565224528312683105e-01 1.301826350390911102e-02 2.362109869718551636e-01
-5.155792832374572754e-01 -7.037713378667831421e-02 -1.025592163205146790e-01
1.801616251468658447e-01 -7.912700623273849487e-02 1.392400860786437988e-01
-9.299056977033615112e-02 -8.250682801008224487e-02 -1.182772070169448853e-01
-3.782155811786651611e-01 7.794181257486343384e-02 -8.230473101139068604e-02
7.418164610862731934e-01 4.499083012342453003e-02 -9.386702626943588257e-02
-2.268109917640686035e-01 -8.569489419460296631e-02 4.118832200765609741e-02
3.104129731655120850e-01 6.087637320160865784e-02 -1.803948879241943359e-01
6.743934154510498047e-01 -6.551891565322875977e-02 -4.584567248821258545e-02
2.854485809803009033e-01 8.183844387531280518e-02 -2.012788690626621246e-02
-2.059290707111358643e-01 -7.038758695125579834e-02 1.752039939165115356e-01
5.920413732528686523e-01 5.898680910468101501e-02 -1.009817421436309814e-01
-5.004131197929382324e-01 2.408583648502826691e-02 -2.554514706134796143e-01
-3.766510486602783203e-01 3.911059722304344177e-02 2.512699663639068604e-01
1.092753559350967407e-01 -7.853016257286071777e-02 1.480135619640350342e-01
6.819289922714233398e-02 6.711270660161972046e-02 -1.842688173055648804e-01
4.722028970718383789e-02 -4.895224422216415405e-02 2.608158290386199951e-01
7.722354531288146973e-01 5.114597082138061523e-02 1.737855002284049988e-02
-6.206648945808410645e-01 2.110263146460056305e-02 2.263267934322357178e-01
-6.823694705963134766e-01 -3.074280731379985809e-02 1.878583878278732300e-01
-6.722288131713867188e-01 -2.553725801408290863e-02 2.007001638412475586e-01
1.435354799032211304e-01 -8.022871613502502441e-02 1.345470994710922241e-01
6.147432327270507812e-01 -5.055772140622138977e-02 -1.645161658525466919e-01
1.558400243520736694e-01 8.387726545333862305e-02 -4.675574228167533875e-02
-9.071808308362960815e-03 7.201399654150009155e-02 1.803095936775207520e-01
-6.443037390708923340e-01 -5.343054980039596558e-02 1.316326558589935303e-01
-7.698050141334533691e-01 5.587359145283699036e-02 -4.345440492033958435e-02
1.403478980064392090e-01 -7.744908332824707031e-02 1.531984657049179077e-01
-5.579712986946105957e-01 7.106099277734756470e-02 -6.723669916391372681e-02
6.840726137161254883e-01 3.864897415041923523e-02 1.819562464952468872e-01
3.163729608058929443e-01 2.583271823823451996e-02 2.845384478569030762e-01
-2.742750644683837891e-01 6.267484277486801147e-02 -1.951061785221099854e-01
-4.080306589603424072e-01 2.804848365485668182e-02 2.633355855941772461e-01
-9.850053191184997559e-01 9.298289194703102112e-03 -4.148703441023826599e-02
8.956500887870788574e-01 -3.759612515568733215e-02 -3.556939959526062012e-02
3.868148326873779297e-01 7.382286339998245239e-02 1.108019128441810608e-01
3.248414695262908936e-01 -8.249089866876602173e-02 8.151242136955261230e-02
-9.891985058784484863e-01 -4.898521117866039276e-03 -3.042216785252094269e-02
4.197737574577331543e-01 -8.071848005056381226e-02 -5.057366937398910522e-02
-6.533399820327758789e-01 8.394596166908740997e-03 2.259403318166732788e-01
1.667356491088867188e-01 8.499988168478012085e-02 3.507360443472862244e-02
1.834990829229354858e-01 7.075305283069610596e-02 -1.551833748817443848e-01
-1.050350591540336609e-01 -4.008731245994567871e-02 2.744190394878387451e-01
-9.909773617982864380e-02 -7.638227939605712891e-02 1.557127088308334351e-01
-3.814664185047149658e-01 -7.915180921554565430e-02 -7.902704179286956787e-02
9.118762612342834473e-02 -6.989917159080505371e-02 -1.920952051877975464e-01
3.520231842994689941e-01 7.755064219236373901e-02 -5.760278552770614624e-02
-1.379609853029251099e-01 5.303641082718968391e-04 3.071674108505249023e-01
-3.025447726249694824e-01 4.089277610182762146e-02 2.580885589122772217e-01
-1.066601648926734924e-01 3.881337866187095642e-02 -2.688747048377990723e-01
-4.149078130722045898e-01 -4.311135038733482361e-02 2.320069223642349243e-01
6.317542493343353271e-02 7.212948054075241089e-02 1.783386915922164917e-01
-4.176124036312103271e-01 5.895492807030677795e-02 1.912821084260940552e-01
-2.743970751762390137e-01 -8.244297653436660767e-02 -8.359114825725555420e-02
5.258960723876953125e-01 4.850831627845764160e-02 -1.744273751974105835e-01
-5.394741892814636230e-01 4.990615323185920715e-02 1.921487301588058472e-01
1.926862150430679321e-01 -8.826261013746261597e-02 1.976285688579082489e-02
-3.116840124130249023e-01 6.634943932294845581e-02 1.813556551933288574e-01
8.622529506683349609e-01 -4.478437080979347229e-02 5.381156504154205322e-02
-6.432823836803436279e-02 -1.109222881495952606e-02 3.078370690345764160e-01
-7.161203622817993164e-01 -2.768694609403610229e-02 -1.978931874036788940e-01
5.122049450874328613e-01 -7.444901019334793091e-02 8.781683444976806641e-02
-4.715367555618286133e-01 4.890370741486549377e-02 2.117469310760498047e-01
-3.262669742107391357e-01 7.510303705930709839e-02 -1.221200004220008850e-01
9.524068236351013184e-02 -7.558348774909973145e-02 1.659821271896362305e-01
-5.862096548080444336e-01 -6.964703649282455444e-02 3.966260328888893127e-02
-1.906623840332031250e-01 -8.568894118070602417e-02 -6.550335139036178589e-02
7.409472763538360596e-02 -3.522107144817709923e-03 -3.025356829166412354e-01
2.518802881240844727e-01 1.537631358951330185e-02 -2.830978631973266602e-01
-5.153064727783203125e-01 6.881979107856750488e-02 -1.113941296935081482e-01
-3.950168192386627197e-02 -7.678641378879547119e-02 -1.603970527648925781e-01
-2.571892738342285156e-02 -5.686355382204055786e-02 2.392525970935821533e-01
-9.371878504753112793e-01 -1.466881483793258667e-02 -9.673105925321578979e-02
-3.567508459091186523e-01 7.748282700777053833e-02 -9.438828378915786743e-02
5.423419475555419922e-01 6.314135342836380005e-02 -9.831678122282028198e-02
3.641602396965026855e-01 -6.445825099945068359e-02 1.918738782405853271e-01
-3.956532180309295654e-01 -4.050407558679580688e-02 -2.499471157789230347e-01
-6.931996345520019531e-01 -5.744540691375732422e-02 -9.761852771043777466e-02
4.299056231975555420e-01 -5.891263484954833984e-02 -1.884655207395553589e-01
6.892976164817810059e-01 -6.627286225557327271e-02 6.944164633750915527e-03
-1.819085478782653809e-01 -6.718631833791732788e-02 -1.983816623687744141e-01
-7.608312368392944336e-01 5.710480734705924988e-02 3.049001097679138184e-02
3.230322152376174927e-02 -4.921223968267440796e-02 2.601512670516967773e-01
-5.001904964447021484e-01 -6.750889867544174194e-02 1.164297163486480713e-01
5.566771626472473145e-01 -5.630720779299736023e-02 1.808664649724960327e-01
-1.468437612056732178e-01 6.354015320539474487e-02 -2.010229527950286865e-01
9.096840620040893555e-01 8.163752965629100800e-03 -9.231721609830856323e-02
-6.939359307289123535e-01 -5.034577473998069763e-02 1.213493198156356812e-01
3.210278451442718506e-01 -7.508542388677597046e-02 1.456943154335021973e-01
-3.567093908786773682e-01 -6.914720684289932251e-02 -1.641388982534408569e-01
8.196387887001037598e-01 -4.599524289369583130e-02 -7.231906056404113770e-02
2.202740311622619629e-01 -5.788425728678703308e-02 -2.244984507560729980e-01
1.267794519662857056e-01 8.539849519729614258e-02 4.460582882165908813e-02
1.508488655090332031e-01 -8.829950354993343353e-03 3.087940812110900879e-01
-2.576671838760375977e-01 8.349931985139846802e-02 -4.915466532111167908e-02
-8.796602487564086914e-01 4.138265550136566162e-02 -4.070746526122093201e-02
-1.439973860979080200e-01 5.758580565452575684e-02 2.322424650192260742e-01
-3.048046827316284180e-01 8.068022131919860840e-02 8.382490277290344238e-02
-3.772562146186828613e-01 -2.920443564653396606e-02 2.634831964969635010e-01
-2.575003802776336670e-01 -8.415696024894714355e-02 5.547226592898368835e-02
7.899535894393920898e-01 -3.870965912938117981e-02 -1.238698288798332214e-01
-1.665547192096710205e-01 8.376622945070266724e-02 8.054529130458831787e-02
5.389196276664733887e-01 -4.974114522337913513e-02 -1.903342902660369873e-01
-6.154893636703491211e-01 6.284765899181365967e-02 1.061778068542480469e-01
9.487463831901550293e-01 6.704838946461677551e-03 9.096768498420715332e-02
6.106901764869689941e-01 -6.518089771270751953e-02 -9.762272983789443970e-02
1.755606681108474731e-01 -7.853520661592483521e-02 -1.404486149549484253e-01
-6.688627600669860840e-01 1.248808205127716064e-02 2.195134907960891724e-01
-3.242475092411041260e-01 8.246929943561553955e-02 4.551888629794120789e-02
4.438084661960601807e-01 3.156376257538795471e-02 -2.354839444160461426e-01
-4.569992125034332275e-01 7.672191411256790161e-02 -5.898693203926086426e-02
-8.495283126831054688e-01 -2.139512449502944946e-03 1.512285470962524414e-01
-1.057127565145492554e-01 -8.885034173727035522e-02 -6.711195223033428192e-03
8.175051957368850708e-02 -7.322104275226593018e-02 1.786307245492935181e-01
1.511202305555343628e-01 4.984517768025398254e-02 -2.366301268339157104e-01
-4.975732862949371338e-01 -4.753459244966506958e-02 -2.153072953224182129e-01
-4.036157429218292236e-01 7.113751024007797241e-02 -1.314689218997955322e-01
1.279813498258590698e-01 -8.913888037204742432e-02 1.275615114718675613e-02
4.769475162029266357e-01 7.146118581295013428e-02 -5.991882085800170898e-02
-2.554237842559814453e-01 6.874267011880874634e-02 1.789488345384597778e-01
7.059527039527893066e-01 4.485940933227539062e-02 1.496792882680892944e-01
6.954469680786132812e-01 4.868004098534584045e-02 1.372012943029403687e-01
-7.230757474899291992e-01 -4.967626184225082397e-02 1.078293249011039734e-01
3.668324053287506104e-01 -6.705021858215332031e-02 1.802082061767578125e-01
3.897056281566619873e-01 -8.200340718030929565e-02 5.782666057348251343e-02
3.174223005771636963e-01 6.504369527101516724e-02 -1.606765240430831909e-01
1.253745108842849731e-01 8.576226234436035156e-02 -9.825801476836204529e-03
-3.581785410642623901e-02 8.441516011953353882e-02 8.450868725776672363e-02
-1.646183878183364868e-01 -5.774317309260368347e-02 2.282232940196990967e-01
2.884892821311950684e-01 -7.894143462181091309e-02 1.251062154769897461e-01
-4.655264914035797119e-01 7.660997658967971802e-02 5.803819373250007629e-02
-2.954511344432830811e-01 -5.840906524099409580e-04 -2.951623797416687012e-01
5.952028557658195496e-02 -8.944698423147201538e-02 -2.005034498870372772e-02
-7.657073736190795898e-01 3.203051909804344177e-02 -1.699288934469223022e-01
-5.805232524871826172e-01 -4.626343026757240295e-02 -1.978386044502258301e-01
-5.411610379815101624e-02 -8.273040503263473511e-02 -1.190345957875251770e-01
7.625219225883483887e-02 8.251444995403289795e-02 1.020199880003929138e-01
-3.993968367576599121e-01 4.344414547085762024e-02 -2.378081679344177246e-01
-6.053972840309143066e-01 6.234724447131156921e-02 1.147786155343055725e-01
1.184640824794769287e-01 4.858333244919776917e-02 -2.423498779535293579e-01
-5.930721163749694824e-01 -3.278378024697303772e-02 2.121183723211288452e-01
-7.546939849853515625e-01 -2.767059765756130219e-02 1.655662059783935547e-01
-4.812699183821678162e-02 -7.627178728580474854e-02 1.600909382104873657e-01
5.480082631111145020e-01 -6.809730082750320435e-02 -1.090332791209220886e-01
-3.848436474800109863e-01 7.635533064603805542e-02 1.017567142844200134e-01
1.843083836138248444e-02 5.972031876444816589e-02 2.303466796875000000e-01
-7.027661800384521484e-02 8.649394661188125610e-02 4.427245631814002991e-02
-7.956033945083618164e-02 -3.041701763868331909e-02 -2.889523804187774658e-01
5.850254297256469727e-01 -7.329313457012176514e-02 4.132646694779396057e-02
-4.778105020523071289e-01 -6.140678003430366516e-02 -1.716739833354949951e-01
-1.505766957998275757e-01 -8.778890967369079590e-02 2.655178681015968323e-02
-2.808464169502258301e-01 8.271298557519912720e-02 -5.437893420457839966e-02
9.197278618812561035e-01 9.792556986212730408e-03 -8.096227794885635376e-02
-6.563134789466857910e-01 -6.479283422231674194e-02 -5.001421645283699036e-02
-9.178006649017333984e-01 -2.469278872013092041e-02 6.476691365242004395e-02
-3.134689927101135254e-01 1.905801147222518921e-02 -2.845413684844970703e-01
-9.742104411125183105e-01 1.713888905942440033e-02 -3.793543204665184021e-02
7.773543000221252441e-01 -5.683671310544013977e-02 4.484375566244125366e-02
6.580403447151184082e-01 6.236036494374275208e-02 1.031074579805135727e-02
5.213989615440368652e-01 7.081190496683120728e-02 -3.121211193501949310e-02
-6.260471045970916748e-02 -8.813037723302841187e-02 4.740636423230171204e-02
3.719669580459594727e-01 4.982693120837211609e-02 -2.071452289819717407e-01
8.312423229217529297e-01 4.120007902383804321e-02 6.931294500827789307e-02
-3.335308730602264404e-01 7.024607062339782715e-02 1.580131798982620239e-01
-8.242326974868774414e-01 1.590498164296150208e-02 1.575603932142257690e-01
5.008669495582580566e-01 5.056456429883837700e-04 2.757385373115539551e-01
2.649902105331420898e-01 -8.462909609079360962e-02 -6.799001991748809814e-02
4.752287268638610840e-01 5.112293362617492676e-02 -1.797626614570617676e-01
-5.968858003616333008e-01 6.631593406200408936e-02 -9.177664667367935181e-02
3.843672275543212891e-01 5.950813647359609604e-05 2.925891280174255371e-01
-4.936970472335815430e-01 5.838281288743019104e-02 -1.748108714818954468e-01
1.067796871066093445e-01 -5.116428434848785400e-02 -2.505050003528594971e-01
7.216369509696960449e-01 -5.640763044357299805e-02 1.088456064462661743e-01
6.874730587005615234e-01 5.090125650167465210e-02 1.296678781509399414e-01
3.349296748638153076e-01 1.147031690925359726e-02 -2.761977910995483398e-01
-5.558879673480987549e-02 -6.573200970888137817e-02 -2.105676382780075073e-01
2.412126064300537109e-01 5.560258775949478149e-02 -2.102979868650436401e-01
-3.847371339797973633e-01 -4.415733739733695984e-02 -2.440236359834671021e-01
1.894803792238235474e-01 -8.705874532461166382e-02 -5.308648198843002319e-02
4.687345921993255615e-01 3.108622506260871887e-02 -2.312888652086257935e-01
-5.215471982955932617e-01 -1.628051511943340302e-02 -2.611527442932128906e-01
5.876693725585937500e-01 -7.239569723606109619e-02 5.648046731948852539e-02
-8.726868033409118652e-01 4.340480268001556396e-02 -2.383764460682868958e-02
4.799221456050872803e-01 -7.730004191398620605e-02 7.294702529907226562e-02
-4.499392807483673096e-01 -6.884439289569854736e-02 1.272178590297698975e-01
-3.602386415004730225e-01 7.468467205762863159e-02 -1.174183264374732971e-01
-2.892072796821594238e-01 -6.965351849794387817e-02 1.651341766119003296e-01
-5.197914838790893555e-01 7.377822697162628174e-02 -5.856890231370925903e-02
8.130151033401489258e-01 1.461846660822629929e-02 1.777208000421524048e-01
-3.697817623615264893e-01 -8.113920688629150391e-02 -5.441440269351005554e-02
3.509836792945861816e-01 -7.750347256660461426e-02 1.222007796168327332e-01
1.544380784034729004e-01 8.549000322818756104e-02 1.224219612777233124e-02
6.056272387504577637e-01 -2.036786638200283051e-02 -2.236132621765136719e-01
-7.610489130020141602e-01 5.109700188040733337e-02 -9.862171113491058350e-02
6.000176072120666504e-01 -6.719344854354858398e-02 -8.867752552032470703e-02
-9.383586645126342773e-01 -2.315403148531913757e-02 -6.573304533958435059e-02
4.703188836574554443e-01 -7.799725979566574097e-02 -5.764701589941978455e-02
3.340866267681121826e-01 -8.166220039129257202e-02 -8.079855144023895264e-02
-3.812141716480255127e-01 -8.135294169187545776e-02 2.481779269874095917e-02
6.612723469734191895e-01 6.188707426190376282e-02 -2.071446506306529045e-03
7.907004356384277344e-01 -4.959760978817939758e-02 1.008527055382728577e-01
-1.230009570717811584e-01 -8.863302320241928101e-02 -3.095899941399693489e-03
-1.309904456138610840e-01 8.667529374361038208e-02 2.073530107736587524e-02
3.091756701469421387e-01 -8.035711944103240967e-02 1.087105795741081238e-01
6.019142270088195801e-01 -4.406261444091796875e-02 2.068579047918319702e-01
-7.407330274581909180e-01 4.499567672610282898e-02 1.327511072158813477e-01
-1.049497202038764954e-01 6.841535121202468872e-02 1.946813017129898071e-01
-1.827055364847183228e-01 -7.851178944110870361e-02 1.317265778779983521e-01
3.375024721026420593e-02 -3.541562333703041077e-02 2.863016426563262939e-01
2.371194809675216675e-01 -6.593820452690124512e-02 -1.955840736627578735e-01
3.931739628314971924e-01 -5.397214740514755249e-02 -2.112807631492614746e-01
-3.784823417663574219e-02 -8.208914846181869507e-02 -1.249762102961540222e-01
3.393267691135406494e-01 8.027621358633041382e-02 3.814578056335449219e-02
-7.164772748947143555e-01 2.663466706871986389e-02 1.892129480838775635e-01
-2.804388105869293213e-02 7.374598085880279541e-02 1.709830909967422485e-01
-7.870227098464965820e-01 -1.697549223899841309e-02 1.691731065511703491e-01
7.372453808784484863e-02 -6.503820419311523438e-02 -2.118092775344848633e-01
-1.565459966659545898e-01 6.351166963577270508e-02 2.112930268049240112e-01
-2.652187347412109375e-01 2.998826280236244202e-02 2.794090509414672852e-01
4.313850104808807373e-01 7.592490315437316895e-02 -2.578071504831314087e-02
-7.059671282768249512e-01 4.788443446159362793e-02 1.389151960611343384e-01
-2.873576283454895020e-01 5.278380215167999268e-02 -2.270520478487014771e-01
5.692248344421386719e-01 3.981725126504898071e-02 -1.875219047069549561e-01
-5.620039701461791992e-01 -6.961610913276672363e-02 6.362820416688919067e-02
7.087877392768859863e-02 -8.955744653940200806e-02 -7.964615710079669952e-03
-8.015689849853515625e-01 3.699803352355957031e-02 -1.386135220527648926e-01
6.670770049095153809e-01 4.634490981698036194e-02 1.620661765336990356e-01
2.420911639928817749e-01 -8.586528152227401733e-02 6.114308163523674011e-02
-1.702317148447036743e-01 8.519958704710006714e-02 5.574769154191017151e-02
7.958658039569854736e-02 2.374337799847126007e-02 3.005410730838775635e-01
9.480420500040054321e-03 8.632198721170425415e-02 4.885069280862808228e-02
-7.465015053749084473e-01 -5.751004442572593689e-02 -1.348583679646253586e-02
5.896256491541862488e-02 -6.960996240377426147e-02 1.955668777227401733e-01
6.622979640960693359e-01 -6.338857114315032959e-02 -7.861380279064178467e-02
1.390134096145629883e-01 5.167428404092788696e-02 2.504542469978332520e-01
-1.154174469411373138e-02 -8.277177065610885620e-02 -1.201188862323760986e-01
-6.113668903708457947e-02 8.485946804285049438e-02 7.739928364753723145e-02
1.610281765460968018e-01 -8.286822587251663208e-02 -1.095995828509330750e-01
-4.473356902599334717e-01 7.629075646400451660e-02 7.446526736021041870e-02
-6.133862733840942383e-01 -6.522383540868759155e-02 -8.901783078908920288e-02
3.836930990219116211e-01 -7.758925110101699829e-02 1.122858822345733643e-01
8.309696316719055176e-01 -4.341088980436325073e-02 1.029099971055984497e-01
-2.085830122232437134e-01 -4.511781781911849976e-02 2.567018568515777588e-01
-8.728888630867004395e-01 3.411971405148506165e-02 -1.003081053495407104e-01
7.392516732215881348e-02 -4.302047565579414368e-02 -2.686849534511566162e-01
5.239475369453430176e-01 -7.721706479787826538e-02 2.965694107115268707e-02
8.464216589927673340e-01 2.413992024958133698e-02 -1.058056131005287170e-01
1.774647831916809082e-01 -8.770179003477096558e-02 4.563104361295700073e-02
2.828404605388641357e-01 5.742867290973663330e-02 -1.981205195188522339e-01
2.073890715837478638e-01 8.409598469734191895e-02 -1.466298010200262070e-02
-1.011195033788681030e-01 5.810793861746788025e-02 -2.214702218770980835e-01
3.083046078681945801e-01 -7.480286061763763428e-02 -1.422611027956008911e-01
-3.284685313701629639e-01 -2.997813932597637177e-02 2.694270908832550049e-01
2.993494831025600433e-02 -7.499380409717559814e-02 -1.703168004751205444e-01
-1.251156777143478394e-01 -8.226043730974197388e-02 1.112585142254829407e-01
-8.994702100753784180e-01 3.653883561491966248e-02 4.034769535064697266e-02
-9.629094600677490234e-01 -1.451050862669944763e-02 4.101857170462608337e-02
8.154166340827941895e-01 -5.303949862718582153e-02 4.341901279985904694e-03
-1.945568621158599854e-01 8.573860675096511841e-02 3.091707080602645874e-02
-2.772804796695709229e-01 -5.755899101495742798e-02 -2.230187207460403442e-01
5.439604818820953369e-02 -7.360628992319107056e-02 -1.767043769359588623e-01
-8.348234742879867554e-02 -8.908382058143615723e-02 -9.275001473724842072e-03
1.461764276027679443e-01 8.408106118440628052e-02 -4.624725878238677979e-02
1.922264248132705688e-01 7.845333963632583618e-02 1.244091987609863281e-01
-1.823945939540863037e-01 -8.540119230747222900e-02 6.459249556064605713e-02
1.864773035049438477e-01 7.878776639699935913e-02 -1.001903787255287170e-01
-3.078078329563140869e-01 -5.959078297019004822e-02 -2.125678807497024536e-01
-5.672519803047180176e-01 -6.746970862150192261e-02 8.213460445404052734e-02
9.536238014698028564e-02 8.005325496196746826e-02 1.240080222487449646e-01
9.286293387413024902e-01 2.503958158195018768e-02 5.893291905522346497e-03
5.301622152328491211e-01 1.802563667297363281e-02 -2.363417744636535645e-01
-5.471152067184448242e-01 -6.536782532930374146e-02 1.097669526934623718e-01
-4.769440889358520508e-01 2.951312065124511719e-02 -2.520988285541534424e-01
8.496575951576232910e-01 2.294062869623303413e-03 1.701349020004272461e-01
7.150449156761169434e-01 -5.426991730928421021e-02 -1.040388718247413635e-01
-9.460536241531372070e-01 1.654960960149765015e-02 -8.788724988698959351e-02
-6.973655223846435547e-01 -3.344934806227684021e-02 1.764569878578186035e-01
8.604032546281814575e-02 -4.563902318477630615e-02 -2.632780969142913818e-01
-4.059614837169647217e-01 -5.073843523859977722e-03 2.787572443485260010e-01
5.957359671592712402e-01 6.638248264789581299e-02 5.355039611458778381e-02
2.763584554195404053e-01 7.541511952877044678e-02 -1.071290373802185059e-01
2.604040503501892090e-01 8.289259672164916992e-02 -8.004351519048213959e-03
-4.584620296955108643e-01 -9.134580381214618683e-03 -2.754149436950683594e-01
-1.320285052061080933e-01 -4.652105271816253662e-02 2.599825561046600342e-01
3.876747488975524902e-01 7.744573056697845459e-02 -3.560678288340568542e-02
-2.787638604640960693e-01 4.621487110853195190e-02 -2.449510842561721802e-01
-6.917664408683776855e-01 8.634016849100589752e-03 -2.257987409830093384e-01
-4.458653032779693604e-01 7.691308856010437012e-02 -6.316453218460083008e-02
5.247464403510093689e-02 8.676888048648834229e-02 2.143560210242867470e-03
-3.856509923934936523e-01 7.940772920846939087e-02 -5.995406955480575562e-02
6.482673883438110352e-01 6.216494366526603699e-02 -2.375390753149986267e-02
-3.204429522156715393e-02 -7.153253257274627686e-02 1.852868944406509399e-01
1.092817187309265137e-01 -6.008283048868179321e-02 2.300346940755844116e-01
6.128121539950370789e-02 -8.666796982288360596e-02 -7.939463853836059570e-02
1.934778541326522827e-01 7.987346500158309937e-02 1.111073717474937439e-01
5.593710541725158691e-01 6.746746599674224854e-02 7.780192047357559204e-02
-8.524442911148071289e-01 4.610208794474601746e-02 -3.346514701843261719e-02
4.666721522808074951e-01 4.754535108804702759e-02 -1.934620589017868042e-01
-8.213224411010742188e-01 -4.729323834180831909e-02 3.014284931123256683e-02
-6.422840952873229980e-01 -6.330177932977676392e-02 -8.549148589372634888e-02
-8.659200742840766907e-03 7.412547618150711060e-02 1.689807325601577759e-01
1.140094548463821411e-01 2.405252540484070778e-03 -3.001171648502349854e-01
-2.749729454517364502e-01 7.395228743553161621e-02 -1.391689181327819824e-01
3.445218503475189209e-01 6.158554181456565857e-02 -1.706655472517013550e-01
4.915743768215179443e-01 -7.638508081436157227e-02 7.753971964120864868e-02
-5.227767229080200195e-01 4.850178956985473633e-02 -2.025420963764190674e-01
6.069849133491516113e-01 4.975585266947746277e-02 1.728103458881378174e-01
1.190945506095886230e-01 7.387276738882064819e-02 1.653926074504852295e-01
2.771406173706054688e-01 8.085304498672485352e-02 7.257992774248123169e-02
-9.980803728103637695e-02 8.140765875577926636e-02 1.146898418664932251e-01
-4.708785414695739746e-01 -9.701667353510856628e-03 2.660357952117919922e-01
-8.367476463317871094e-01 -4.225847125053405762e-02 -8.018663525581359863e-02
-4.355443120002746582e-01 -5.624395236372947693e-02 -2.020291984081268311e-01
-2.980597019195556641e-01 6.168096140027046204e-02 -1.963173002004623413e-01
-5.119730830192565918e-01 -7.523399591445922852e-02 -3.456931188702583313e-02
2.157597988843917847e-01 8.274676650762557983e-02 6.749847531318664551e-02
-8.978018164634704590e-01 3.920029476284980774e-02 -2.007321640849113464e-02
7.357558012008666992e-01 1.912350952625274658e-02 2.041929811239242554e-01
4.121281206607818604e-01 -8.259038627147674561e-02 -3.316099988296627998e-03
-6.312002539634704590e-01 4.743894562125205994e-02 1.712492406368255615e-01
9.684527665376663208e-02 -8.944011479616165161e-02 4.717814736068248749e-03
7.273221015930175781e-01 3.035929426550865173e-02 1.867031604051589966e-01
-6.193255186080932617e-01 6.256753951311111450e-02 -1.089793890714645386e-01
7.561120986938476562e-01 5.239731818437576294e-02 -1.021146122366189957e-02
-6.141012907028198242e-01 -6.899151951074600220e-02 -1.961908675730228424e-02
2.910604774951934814e-01 8.188501745462417603e-02 3.808677569031715393e-02
-9.131377935409545898e-01 -1.919885352253913879e-02 -1.091236695647239685e-01
-9.594351053237915039e-02 -8.148515969514846802e-02 -1.263764798641204834e-01
-1.143118441104888916e-01 -4.728543385863304138e-02 2.594463825225830078e-01
-6.094423532485961914e-01 6.984680145978927612e-02 3.153328225016593933e-02
3.806065917015075684e-01 7.896638661623001099e-02 6.653429940342903137e-03
-5.295321345329284668e-01 7.492427527904510498e-02 2.312487550079822540e-02
-1.762284487485885620e-01 -8.643190562725067139e-02 4.908529296517372131e-02
1.432664245367050171e-01 -3.326361998915672302e-02 2.880092561244964600e-01
-4.696291685104370117e-01 -7.199177891016006470e-02 9.628996998071670532e-02
5.985705852508544922e-01 -3.762064874172210693e-02 2.226032465696334839e-01
-4.394819438457489014e-01 -7.533673942089080811e-02 7.967634499073028564e-02
-1.823591589927673340e-01 -4.642916470766067505e-02 -2.595804631710052490e-01
1.213028579950332642e-01 -8.099266141653060913e-02 -1.290192157030105591e-01
5.420331954956054688e-01 7.060556113719940186e-02 -1.422244356945157051e-03
3.522207736968994141e-01 -8.261392265558242798e-02 -6.067771464586257935e-02
4.401289224624633789e-01 -8.071547746658325195e-02 4.395381361246109009e-02
3.551459908485412598e-01 -5.928210541605949402e-02 -2.018818855285644531e-01
4.098258912563323975e-01 -4.831405729055404663e-02 -2.228842079639434814e-01
-6.142587959766387939e-02 9.968356229364871979e-03 -3.018224239349365234e-01
-4.988769292831420898e-01 7.657077163457870483e-02 -1.760439388453960419e-02
2.783821821212768555e-01 4.781747609376907349e-02 -2.279167175292968750e-01
-5.772061944007873535e-01 6.256790459156036377e-02 1.265064328908920288e-01
2.586269080638885498e-01 8.262398838996887207e-02 4.526006057858467102e-02
-1.533890366554260254e-01 8.068434149026870728e-02 1.161259934306144714e-01
-4.177935421466827393e-02 7.369217276573181152e-02 -1.559343636035919189e-01
9.619058966636657715e-01 -1.800874248147010803e-02 -2.751798368990421295e-02
2.453761398792266846e-01 5.986209586262702942e-02 2.167634665966033936e-01
-3.764459490776062012e-01 -4.064377769827842712e-02 -2.523919641971588135e-01
-3.797519505023956299e-01 -8.077687770128250122e-02 -5.388621240854263306e-02
-8.634304404258728027e-01 -3.578183427453041077e-02 -9.269040077924728394e-02
-6.406570076942443848e-01 -5.953357368707656860e-02 9.907232969999313354e-02
6.818609237670898438e-01 -5.737470090389251709e-02 -1.066019535064697266e-01
-1.561487615108489990e-01 6.604809314012527466e-02 2.014048397541046143e-01
-1.030764654278755188e-01 -7.810960710048675537e-02 -1.495348364114761353e-01
-7.151376456022262573e-02 6.521619111299514771e-02 -1.961896121501922607e-01
4.993540942668914795e-01 -7.804326713085174561e-02 4.312189668416976929e-02
-8.156577944755554199e-01 -4.858607053756713867e-02 -4.353913664817810059e-02
9.329130649566650391e-01 4.609774798154830933e-03 -7.597967237234115601e-02
2.821506261825561523e-01 5.790190771222114563e-02 2.191804498434066772e-01
8.151113986968994141e-01 -4.226358607411384583e-02 -9.485212713479995728e-02
3.229185938835144043e-01 7.937710732221603394e-02 -4.656690731644630432e-02
5.342221260070800781e-01 6.179128214716911316e-02 1.415787637233734131e-01
-8.440585136413574219e-01 -3.813288733363151550e-02 -9.879394620656967163e-02
-5.664820671081542969e-01 -6.554406881332397461e-02 -1.153136491775512695e-01
3.449988663196563721e-01 -8.490716665983200073e-02 1.268270704895257950e-02
7.583112120628356934e-01 -1.064527593553066254e-02 2.087030708789825439e-01
2.617213129997253418e-01 -8.221862465143203735e-02 -9.685455262660980225e-02
9.420893788337707520e-01 -2.915593236684799194e-02 3.337044268846511841e-02
-8.979612588882446289e-01 2.752666175365447998e-02 8.845419436693191528e-02
-1.191472411155700684e-01 4.979412630200386047e-02 -2.448781579732894897e-01
-3.756102621555328369e-01 -8.178032934665679932e-02 -3.069151006639003754e-02
-5.480174422264099121e-01 5.888605117797851562e-02 -1.577035933732986450e-01
7.134631872177124023e-01 5.739140883088111877e-02 1.640719175338745117e-02
-1.474709808826446533e-01 -1.587628573179244995e-02 -2.997704744338989258e-01
-3.017449676990509033e-01 5.547319352626800537e-02 2.229084968566894531e-01
-6.476406455039978027e-01 3.917608410120010376e-02 1.885823905467987061e-01
-2.069810405373573303e-02 5.941378697752952576e-02 -2.171905487775802612e-01
2.432181686162948608e-01 -8.501873165369033813e-02 -6.958691030740737915e-02
1.745038628578186035e-01 8.063405007123947144e-02 1.072456240653991699e-01
2.854289300739765167e-02 -8.966574817895889282e-02 -4.671330098062753677e-04
2.219465970993041992e-01 -7.960194349288940430e-02 -1.266305595636367798e-01
5.432559251785278320e-01 5.725835636258125305e-02 -1.327873617410659790e-01
4.693333208560943604e-01 -8.017745614051818848e-02 -2.637883881106972694e-03
3.726978972554206848e-02 -5.330320447683334351e-02 -2.479331046342849731e-01
-5.595062971115112305e-01 -6.673058867454528809e-02 -1.098559051752090454e-01
-3.222402334213256836e-01 -8.390329033136367798e-02 -2.003032714128494263e-02
4.091657996177673340e-01 4.448032006621360779e-02 -2.146832197904586792e-01
-4.252743721008300781e-01 7.296380400657653809e-02 1.161714792251586914e-01
-4.096620976924896240e-01 4.113470390439033508e-02 2.420262098312377930e-01
3.727528750896453857e-01 7.538288086652755737e-02 1.009518727660179138e-01
3.303216397762298584e-01 -3.556645661592483521e-02 2.721208631992340088e-01
-2.389564961194992065e-01 -8.053267002105712891e-02 1.043788790702819824e-01
3.701917827129364014e-01 3.274801000952720642e-02 2.686887085437774658e-01
-3.422216773033142090e-01 -4.833919927477836609e-02 -2.403284758329391479e-01
-5.522210597991943359e-01 5.166797712445259094e-02 1.829110383987426758e-01
8.285152912139892578e-01 -5.022057518362998962e-02 4.876124858856201172e-02
-7.703551650047302246e-02 -8.619457483291625977e-02 7.664898782968521118e-02
-4.422767162322998047e-01 7.134160399436950684e-02 -1.190605089068412781e-01
-6.042470335960388184e-01 -6.974563747644424438e-02 -3.633764805272221565e-03
7.325745224952697754e-01 5.542333051562309265e-02 8.578273467719554901e-03
1.079127937555313110e-01 -8.285470306873321533e-02 1.161912083625793457e-01
-7.564656734466552734e-01 -5.301062390208244324e-02 -7.877543568611145020e-02
6.198737025260925293e-01 4.242549836635589600e-02 -1.633611023426055908e-01
3.331694602966308594e-01 -5.392994731664657593e-02 -2.214115113019943237e-01
-5.001869201660156250e-01 -3.118596039712429047e-02 -2.486028820276260376e-01
-2.878270447254180908e-01 7.632992416620254517e-02 1.288998275995254517e-01
1.469959169626235962e-01 8.483672142028808594e-02 -2.969625033438205719e-02
2.746318876743316650e-01 6.104464456439018250e-02 2.087432295083999634e-01
9.232943058013916016e-01 -2.865095064043998718e-02 7.872337847948074341e-02
6.083424091339111328e-01 -5.146653950214385986e-02 1.827552765607833862e-01
-1.195549964904785156e-01 1.111114397644996643e-02 3.059441149234771729e-01
-7.041096091270446777e-01 -5.835407599806785583e-02 -8.001849800348281860e-02
4.947523176670074463e-01 6.261425092816352844e-03 2.755056023597717285e-01
-7.776562571525573730e-01 3.004445508122444153e-02 1.578715294599533081e-01
5.262485742568969727e-01 -6.721933186054229736e-02 1.384522616863250732e-01
5.746941566467285156e-01 -6.443306058645248413e-02 1.364837288856506348e-01
3.509858995676040649e-02 4.187916964292526245e-02 -2.617195844650268555e-01
2.031640112400054932e-01 6.054304540157318115e-03 3.071399629116058350e-01
-7.130817510187625885e-03 8.484128862619400024e-02 7.826834917068481445e-02
-2.304953038692474365e-01 8.408255130052566528e-02 5.870327353477478027e-02
7.513248324394226074e-01 -1.114152930676937103e-02 -1.829950958490371704e-01
5.522062182426452637e-01 -6.963207572698593140e-02 -9.591145813465118408e-02
-9.400028586387634277e-01 7.635555230081081390e-03 8.867115527391433716e-02
1.945236623287200928e-01 2.440797537565231323e-02 2.957286834716796875e-01
1.123020723462104797e-01 5.162540078163146973e-02 2.518004179000854492e-01
9.945376217365264893e-02 -7.616909593343734741e-02 -1.612906306982040405e-01
-3.830048441886901855e-01 -5.152307078242301941e-02 2.164320796728134155e-01
-4.652900993824005127e-01 -4.327340424060821533e-02 2.213775068521499634e-01
5.394978523254394531e-01 7.030046731233596802e-02 4.931518062949180603e-02
-5.337095260620117188e-01 -6.594279408454895020e-02 1.121748536825180054e-01
5.602968335151672363e-01 5.986100435256958008e-02 1.421515941619873047e-01
8.482995033264160156e-01 -4.677633568644523621e-02 -2.999777533113956451e-02
9.359026551246643066e-01 -2.578103728592395782e-02 7.374902069568634033e-02
-5.275456309318542480e-01 3.085122676566243172e-03 2.577702403068542480e-01
-7.247124612331390381e-02 -5.576342344284057617e-02 2.404904365539550781e-01
-1.425426006317138672e-01 8.452521264553070068e-02 7.373284548521041870e-02
2.194755673408508301e-01 -8.785938471555709839e-02 1.773137226700782776e-02
8.451501727104187012e-01 2.332704328000545502e-02 1.437169611454010010e-01
4.945053458213806152e-01 -7.527052611112594604e-02 8.881209790706634521e-02
8.006384223699569702e-02 -8.295247703790664673e-02 -1.166203171014785767e-01
4.338029921054840088e-01 -7.905566692352294922e-02 -6.625600904226303101e-02
-2.476929128170013428e-01 -8.530347049236297607e-02 3.795984014868736267e-02
1.520687937736511230e-01 8.245900273323059082e-02 9.095250815153121948e-02
3.446207940578460693e-01 7.298566401004791260e-02 1.323719322681427002e-01
-2.669039368629455566e-01 8.302559703588485718e-02 6.396976113319396973e-02
-4.113501608371734619e-01 8.024640381336212158e-02 2.507832832634449005e-02
-2.560456991195678711e-01 -4.611389711499214172e-02 -2.548240125179290771e-01
1.294627971947193146e-02 -3.039572015404701233e-02 2.931197285652160645e-01
9.009318798780441284e-02 -8.621080964803695679e-02 -8.309873193502426147e-02
-1.578767001628875732e-01 -7.050608098506927490e-02 1.805725842714309692e-01
-1.468591243028640747e-01 3.421961888670921326e-02 2.831271290779113770e-01
4.088580012321472168e-01 -8.247439563274383545e-02 -1.840753108263015747e-02
1.802629828453063965e-01 8.176622539758682251e-02 9.322213381528854370e-02
-4.129094779491424561e-01 -5.114850774407386780e-02 -2.221886664628982544e-01
1.049256548285484314e-01 2.067646756768226624e-02 3.028451204299926758e-01
-9.324778616428375244e-02 -3.290539141744375229e-03 -3.046663105487823486e-01
6.060791015625000000e-01 6.638095527887344360e-02 2.734853513538837433e-02
-4.931062757968902588e-01 4.552429169416427612e-02 -2.170922309160232544e-01
-9.497898221015930176e-01 -1.923951134085655212e-02 4.390980675816535950e-02
-1.006406024098396301e-01 4.377508535981178284e-02 -2.591809630393981934e-01
2.658921480178833008e-01 -8.196231722831726074e-02 1.037314683198928833e-01
2.643322050571441650e-01 4.225334897637367249e-02 2.632909119129180908e-01
4.645507037639617920e-01 7.009401172399520874e-02 -8.153214305639266968e-02
-2.085057348012924194e-01 1.972153037786483765e-02 -2.912011146545410156e-01
-1.922133862972259521e-01 5.784132331609725952e-02 -2.189370095729827881e-01
8.667958378791809082e-01 3.660838305950164795e-02 5.554839596152305603e-02
-1.714041531085968018e-01 -8.597099035978317261e-02 -6.679661571979522705e-02
-5.499452948570251465e-01 -4.238740727305412292e-02 2.027903497219085693e-01
-9.254685044288635254e-02 -8.898918330669403076e-02 3.487988142296671867e-03
1.186581775546073914e-01 3.117008507251739502e-02 -2.762811481952667236e-01
3.083589076995849609e-01 -7.855665683746337891e-02 -1.169377416372299194e-01
-8.165713548660278320e-01 -4.117254167795181274e-02 8.547049015760421753e-02
-2.291846871376037598e-01 8.063942193984985352e-02 1.044334769248962402e-01
3.581499755382537842e-01 -7.077883929014205933e-02 1.634993553161621094e-01
-9.646507501602172852e-01 -1.271712593734264374e-02 -6.620445102453231812e-02
3.342247605323791504e-01 -6.708264350891113281e-03 -2.809464335441589355e-01
2.486789822578430176e-01 -8.704799413681030273e-02 2.993287704885005951e-02
3.279519081115722656e-01 3.601434826850891113e-02 2.684610486030578613e-01
5.299642086029052734e-01 1.941987127065658569e-02 2.600388228893280029e-01
-1.567533910274505615e-01 -8.356690406799316406e-02 9.352632611989974976e-02
-4.586666524410247803e-01 -7.321032881736755371e-02 9.082128107547760010e-02
5.312012434005737305e-01 6.340754777193069458e-02 -1.019097119569778442e-01
-3.266771137714385986e-01 6.405223160982131958e-02 1.887416839599609375e-01
8.028002381324768066e-01 4.493361711502075195e-02 -3.660656139254570007e-02
4.984981715679168701e-01 1.260931603610515594e-03 -2.539375722408294678e-01
-6.156879663467407227e-01 6.753476709127426147e-02 6.352002173662185669e-02
