-3.641349673271179199e-01 -2.478009164333343506e-01 1.090232655405998230e-01
-3.363584280014038086e-01 4.256714880466461182e-01 4.308927431702613831e-02
3.792327046394348145e-01 2.895007133483886719e-01 7.230751961469650269e-02
-3.046855926513671875e-01 4.227933287620544434e-02 2.393581271171569824e-01
-2.610013484954833984e-01 -6.688440442085266113e-01 -7.759755104780197144e-02
-9.164828062057495117e-02 -5.919418931007385254e-01 -2.966631948947906494e-01
-2.382943928241729736e-01 4.561095237731933594e-01 2.214243263006210327e-01
3.416585922241210938e-01 3.409461975097656250e-01 -1.460699141025543213e-01
3.122934699058532715e-01 4.902211129665374756e-01 1.415481865406036377e-01
-1.930009126663208008e-01 -7.801185846328735352e-01 -1.393507234752178192e-02
-2.079756408929824829e-01 -6.767275929450988770e-01 1.436452567577362061e-01
-9.493543207645416260e-02 -4.421515762805938721e-01 -3.477735519409179688e-01
1.830125898122787476e-01 -2.150292992591857910e-01 3.465677201747894287e-01
-1.127462759613990784e-01 8.173645734786987305e-01 4.699258506298065186e-02
-2.259119898080825806e-01 -2.265754044055938721e-01 3.015900254249572754e-01
-3.644013702869415283e-01 3.026425242424011230e-01 4.373954981565475464e-02
-3.435810208320617676e-01 -3.814702332019805908e-01 1.025738492608070374e-01
-1.360502392053604126e-01 -3.803958892822265625e-01 -3.514122664928436279e-01
-2.602472603321075439e-01 5.165014863014221191e-01 1.618280410766601562e-01
7.514436542987823486e-02 -2.834270894527435303e-01 3.709489405155181885e-01
7.362560182809829712e-02 8.321270346641540527e-01 -1.038540229201316833e-01
-1.479446291923522949e-01 7.846660614013671875e-01 5.475517362356185913e-02
8.829362690448760986e-02 1.035368256270885468e-02 -3.962397873401641846e-01
-3.476697951555252075e-02 8.565463423728942871e-01 4.683190584182739258e-02
3.144846558570861816e-01 -5.281282067298889160e-01 3.490306064486503601e-02
9.361159987747669220e-03 -6.025239825248718262e-01 -2.998199164867401123e-01
2.395588904619216919e-02 -1.472323667258024216e-02 3.975762426853179932e-01
-7.962756603956222534e-02 -5.003951191902160645e-01 3.128896653652191162e-01
3.397525250911712646e-01 3.170007169246673584e-01 -1.599053293466567993e-01
-7.905655354261398315e-02 3.537450730800628662e-01 3.486827611923217773e-01
3.228027522563934326e-01 -4.112377464771270752e-01 1.476871967315673828e-01
-1.090032458305358887e-01 -7.626399397850036621e-01 1.605236381292343140e-01
-1.978760212659835815e-01 1.002960558980703354e-02 -3.648626208305358887e-01
-7.493832707405090332e-02 8.158021569252014160e-01 -1.180592775344848633e-01
2.417808175086975098e-01 4.644576311111450195e-01 -2.420919388532638550e-01
-3.371792733669281006e-01 4.429695308208465576e-01 -3.069248795509338379e-02
-3.154738247394561768e-01 4.194716215133666992e-01 1.192213371396064758e-01
-3.931795060634613037e-01 -1.247534975409507751e-01 -8.293867111206054688e-02
1.283846944570541382e-01 4.795416593551635742e-01 3.139953315258026123e-01
1.549589037895202637e-01 6.059465408325195312e-01 2.514207661151885986e-01
-9.755638986825942993e-02 6.741930246353149414e-01 -2.400389462709426880e-01
2.992720007896423340e-01 1.074736639857292175e-01 2.750242054462432861e-01
-1.492340564727783203e-01 3.094734810292720795e-02 3.604517877101898193e-01
3.507268428802490234e-01 1.993592232465744019e-01 1.914552599191665649e-01
-1.613332480192184448e-01 7.823956012725830078e-01 1.376317907124757767e-02
1.996870785951614380e-01 -6.221740245819091797e-01 -1.934539526700973511e-01
1.591319441795349121e-01 -3.425190970301628113e-02 3.715007603168487549e-01
9.269075095653533936e-02 -1.817747578024864197e-02 3.907037973403930664e-01
-1.612415015697479248e-01 7.358523607254028320e-01 1.142445281147956848e-01
-2.959552407264709473e-01 3.969092369079589844e-01 -2.081001698970794678e-01
-7.147779315710067749e-02 -3.163304030895233154e-01 3.604499399662017822e-01
3.066539764404296875e-02 -8.713303208351135254e-01 -2.956505492329597473e-02
-3.439073562622070312e-01 3.278577327728271484e-01 1.036283448338508606e-01
-2.730418741703033447e-01 -1.902832388877868652e-01 2.651230692863464355e-01
-2.826211750507354736e-01 -2.761964499950408936e-01 2.404815554618835449e-01
-4.896931815892457962e-03 5.089135840535163879e-03 3.969003260135650635e-01
-3.238582611083984375e-02 1.982921957969665527e-01 -3.982100188732147217e-01
5.628035962581634521e-02 8.147069215774536133e-01 -1.380472630262374878e-01
3.581855818629264832e-02 3.827410340309143066e-01 3.566069304943084717e-01
-1.821919530630111694e-01 -3.891437649726867676e-01 -3.291531801223754883e-01
1.869186013936996460e-02 -2.143533527851104736e-02 -4.083938300609588623e-01
-5.046076606959104538e-03 -8.455363512039184570e-01 -1.152650788426399231e-01
-1.207005307078361511e-01 7.979476451873779297e-01 7.866930961608886719e-02
3.996036648750305176e-01 -9.133707731962203979e-02 3.152488544583320618e-02
2.933936715126037598e-01 -5.570773035287857056e-02 -2.688078582286834717e-01
-1.851940155029296875e-01 4.445542097091674805e-01 2.730620503425598145e-01
-3.744899034500122070e-01 -4.182977229356765747e-02 1.182816699147224426e-01
2.684559524059295654e-01 6.201285719871520996e-01 -1.063859537243843079e-01
-3.774712681770324707e-01 -2.203129231929779053e-01 -1.223939806222915649e-01
1.939376741647720337e-01 -1.517617702484130859e-02 3.564716875553131104e-01
-1.232308223843574524e-01 -6.972518563270568848e-01 2.035795301198959351e-01
-6.185225769877433777e-02 -6.816520094871520996e-01 -2.583052217960357666e-01
2.612229585647583008e-01 -4.141268730163574219e-01 2.412365972995758057e-01
1.603149324655532837e-01 -7.218033075332641602e-01 1.554030328989028931e-01
-2.912020087242126465e-01 -3.230839967727661133e-01 -2.581235468387603760e-01
2.295200079679489136e-01 6.487885713577270508e-01 -1.497466117143630981e-01
8.300504833459854126e-02 -8.443289995193481445e-01 -6.170350685715675354e-02
-1.657488197088241577e-01 7.013272643089294434e-01 -1.716654002666473389e-01
-3.944809436798095703e-01 1.093673259019851685e-01 -4.123561456799507141e-02
2.327269911766052246e-01 1.957458257675170898e-01 -3.146490454673767090e-01
1.017430871725082397e-01 -4.345402717590332031e-01 3.321493566036224365e-01
1.695814579725265503e-01 -7.562089562416076660e-01 -9.939562529325485229e-02
-1.332477666437625885e-02 7.923042178153991699e-01 -1.708012074232101440e-01
-2.565962672233581543e-01 4.754355251789093018e-01 -2.245271205902099609e-01
2.297698855400085449e-01 -2.518066167831420898e-01 -3.054493665695190430e-01
-4.687939211726188660e-02 1.321440562605857849e-03 3.921200931072235107e-01
-1.573078036308288574e-01 7.108136266469955444e-02 3.552304208278656006e-01
-1.318812072277069092e-01 -3.376132249832153320e-01 -3.619703650474548340e-01
1.291574537754058838e-01 -2.731188833713531494e-01 3.595873713493347168e-01
1.575317382812500000e-01 -7.206360697746276855e-01 -1.596358865499496460e-01
-9.547355026006698608e-02 8.114610910415649414e-01 8.766280114650726318e-02
3.119908273220062256e-01 2.098551094532012939e-01 -2.325104624032974243e-01
-3.275951147079467773e-01 -9.593771398067474365e-02 2.077248990535736084e-01
3.736666142940521240e-01 -7.329579442739486694e-02 -1.360525637865066528e-01
2.532017827033996582e-01 2.157106995582580566e-01 -2.951598167419433594e-01
3.034575581550598145e-01 -4.383820891380310059e-01 1.707031726837158203e-01
-3.179058134555816650e-01 -2.973447144031524658e-01 1.885232180356979370e-01
6.128637865185737610e-02 2.388555407524108887e-01 3.802780508995056152e-01
3.741568326950073242e-01 -2.043019086122512817e-01 1.202040836215019226e-01
-3.777060806751251221e-01 -2.358743846416473389e-01 6.793055683374404907e-02
1.521270126104354858e-01 7.599218487739562988e-01 -1.361019611358642578e-01
-2.303224205970764160e-01 2.885593175888061523e-01 -3.132951557636260986e-01
2.032642960548400879e-01 -5.097726583480834961e-01 -2.513045072555541992e-01
-1.419735103845596313e-01 4.568542540073394775e-01 -3.200273513793945312e-01
-1.865542382001876831e-01 -4.252114892005920410e-01 2.869696319103240967e-01
2.251201272010803223e-01 -4.064793586730957031e-01 2.775871753692626953e-01
-4.056275635957717896e-02 7.829336524009704590e-01 -1.749916672706604004e-01
-1.662385314702987671e-01 -5.246929526329040527e-01 -2.948430776596069336e-01
-9.198112785816192627e-02 4.360631108283996582e-01 -3.437929153442382812e-01
1.207143217325210571e-01 6.120219826698303223e-01 2.640200853347778320e-01
-2.913161516189575195e-01 -6.199020743370056152e-01 -2.312966063618659973e-02
-3.377601802349090576e-01 -4.851505458354949951e-01 -5.974263325333595276e-02
-1.595978438854217529e-02 -2.388260066509246826e-01 3.809967041015625000e-01
3.290904164314270020e-01 2.652566134929656982e-01 -1.955013126134872437e-01
-1.425871998071670532e-01 -9.780324995517730713e-02 -3.870968818664550781e-01
-6.128194276243448257e-03 -2.836022377014160156e-01 -3.889439702033996582e-01
2.164037078619003296e-01 -7.128145694732666016e-01 -6.599801033735275269e-02
-9.705623239278793335e-02 -4.135752618312835693e-01 -3.547430634498596191e-01
-2.095007002353668213e-01 -3.492648154497146606e-02 3.274418413639068604e-01
1.622504293918609619e-01 -7.936888933181762695e-01 6.080064922571182251e-03
8.515762537717819214e-02 -7.216272354125976562e-01 2.065590173006057739e-01
1.342599745839834213e-03 -6.302080750465393066e-01 2.740640342235565186e-01
3.348854929208755493e-02 4.854882508516311646e-02 -4.061908423900604248e-01
-1.761418022215366364e-02 -2.582303583621978760e-01 3.782247602939605713e-01
2.526046708226203918e-02 -8.270257115364074707e-01 -1.364416927099227905e-01
-1.465335339307785034e-01 7.173796743154525757e-02 3.602179288864135742e-01
-1.429824382066726685e-01 -7.683352231979370117e-01 1.275159865617752075e-01
-1.031124144792556763e-01 -8.530867695808410645e-01 5.791899748146533966e-04
-3.316217660903930664e-01 -3.646321892738342285e-01 -1.828718483448028564e-01
4.379232600331306458e-02 5.221669673919677734e-01 3.168181777000427246e-01
3.778502643108367920e-01 -1.173936426639556885e-01 -1.162946820259094238e-01
-3.899766504764556885e-01 -1.656441390514373779e-01 3.946686163544654846e-02
1.779332906007766724e-01 4.635641276836395264e-01 -2.931403517723083496e-01
-2.398028820753097534e-01 -6.061944961547851562e-01 -1.919660419225692749e-01
-1.319869905710220337e-01 -7.044036388397216797e-01 -2.190903574228286743e-01
-3.324444591999053955e-01 -4.391553401947021484e-01 9.488999098539352417e-02
-3.842829465866088867e-01 2.106945961713790894e-01 -3.874818608164787292e-02
8.123314380645751953e-02 -6.531588435173034668e-01 -2.581745088100433350e-01
-2.982899844646453857e-01 1.960382312536239624e-01 -2.676838934421539307e-01
-1.731336265802383423e-01 -4.854418933391571045e-01 -3.054608106613159180e-01
1.832552254199981689e-01 -6.545547246932983398e-01 1.903106868267059326e-01
-3.109685182571411133e-01 -3.961966931819915771e-01 -2.063533216714859009e-01
-8.212891966104507446e-02 7.517262101173400879e-01 1.707990020513534546e-01
-3.033739328384399414e-01 -5.826656222343444824e-01 2.558269724249839783e-02
-3.718851506710052490e-01 1.131011098623275757e-01 -1.557209044694900513e-01
3.755450248718261719e-01 1.257553994655609131e-01 1.504408568143844604e-01
6.790657062083482742e-03 -2.768803536891937256e-01 -3.893188834190368652e-01
1.307838261127471924e-01 6.820667982101440430e-01 2.200673520565032959e-01
3.224502801895141602e-01 -4.969239830970764160e-01 5.866820365190505981e-02
2.198069691658020020e-01 2.739032208919525146e-01 3.202058970928192139e-01
-2.763710319995880127e-01 5.182482004165649414e-01 -1.682473719120025635e-01
1.541144549846649170e-01 7.177271842956542969e-01 1.790511906147003174e-01
3.357345163822174072e-01 -4.431590735912322998e-01 -6.158813089132308960e-02
-8.779115229845046997e-02 -8.290860056877136230e-01 -1.175057888031005859e-01
-4.187545552849769592e-02 5.973724722862243652e-01 2.809973657131195068e-01
-3.855163156986236572e-01 1.231395900249481201e-01 -1.043026074767112732e-01
-3.747490942478179932e-01 -1.359733641147613525e-01 -1.545325666666030884e-01
5.747293308377265930e-02 -8.344838619232177734e-01 1.003298684954643250e-01
-2.969264090061187744e-01 -2.752453088760375977e-01 -2.630305290222167969e-01
-3.635413944721221924e-01 2.867022752761840820e-01 -1.066321358084678650e-01
-3.481110334396362305e-01 -4.263296127319335938e-01 -9.397117048501968384e-02
2.583985626697540283e-01 -1.822832375764846802e-01 3.019820451736450195e-01
-3.156182169914245605e-01 -3.791746497154235840e-01 1.644027233123779297e-01
1.220479831099510193e-01 4.425571262836456299e-01 3.272225558757781982e-01
1.402654051780700684e-01 1.932685673236846924e-01 -3.684324026107788086e-01
-2.697875499725341797e-01 -2.878702282905578613e-01 2.519865930080413818e-01
3.218556642532348633e-01 -5.103662014007568359e-01 2.464421093463897705e-03
4.262582212686538696e-02 8.314440846443176270e-01 1.125608161091804504e-01
3.209682703018188477e-01 4.936900734901428223e-01 -9.944258630275726318e-02
-2.422977983951568604e-01 2.101868949830532074e-02 -3.368481397628784180e-01
-4.112353920936584473e-02 -8.095846772193908691e-01 1.434206962585449219e-01
-3.011071383953094482e-01 -5.102472901344299316e-01 -1.603405773639678955e-01
3.081317842006683350e-01 5.558632016181945801e-01 -7.018098235130310059e-02
3.914224356412887573e-02 -8.516968488693237305e-01 -8.915306627750396729e-02
1.378483176231384277e-01 -5.437563657760620117e-01 2.816173434257507324e-01
-2.703463435173034668e-01 -5.052163600921630859e-01 -2.140311151742935181e-01
3.618408367037773132e-02 3.118084371089935303e-01 -3.793207705020904541e-01
-1.763209700584411621e-02 -8.553028702735900879e-01 8.169785141944885254e-02
2.725438177585601807e-01 3.656505346298217773e-01 2.563478052616119385e-01
-3.238701522350311279e-01 4.480807185173034668e-01 -1.104511171579360962e-01
2.955337464809417725e-01 4.446566849946975708e-02 2.818466722965240479e-01
-1.097723618149757385e-01 3.816838562488555908e-02 3.758372664451599121e-01
-5.489011108875274658e-02 -2.316469550132751465e-01 -3.946323692798614502e-01
3.553824722766876221e-01 1.196710839867591858e-01 -1.761853843927383423e-01
-3.291633427143096924e-01 -2.796277701854705811e-01 -2.173262685537338257e-01
1.080218479037284851e-01 4.197212755680084229e-01 3.373790383338928223e-01
-2.723438441753387451e-01 -6.236963868141174316e-01 7.876469194889068604e-02
-2.868531346321105957e-01 3.135958611965179443e-01 -2.524638473987579346e-01
3.781572878360748291e-01 2.438072115182876587e-01 1.075780317187309265e-01
2.820145189762115479e-01 1.249204576015472412e-01 -2.781468033790588379e-01
2.196673899888992310e-01 2.835567891597747803e-01 -3.108250796794891357e-01
2.335284799337387085e-01 4.363599717617034912e-01 2.695562243461608887e-01
1.120111048221588135e-01 4.259195029735565186e-01 -3.361772298812866211e-01
-3.570813834667205811e-01 6.139678508043289185e-02 1.546922028064727783e-01
3.620402887463569641e-02 -8.497155904769897461e-01 8.374714851379394531e-02
-3.130735754966735840e-01 -2.954585254192352295e-01 -2.374115735292434692e-01
2.338232249021530151e-01 -5.448856949806213379e-01 -2.023696303367614746e-01
3.159226179122924805e-01 1.252911835908889771e-01 -2.385374456644058228e-01
4.876087605953216553e-02 1.845971494913101196e-01 -3.952978849411010742e-01
-3.587343096733093262e-01 -3.902395963668823242e-01 -8.203640580177307129e-02
-8.840685337781906128e-02 8.084450960159301758e-01 1.003176495432853699e-01
2.498419024050235748e-02 -3.602867126464843750e-01 3.615981936454772949e-01
1.103512048721313477e-01 2.775002121925354004e-01 3.662756681442260742e-01
-7.223749905824661255e-02 7.863969802856445312e-01 -1.588462442159652710e-01
-3.183324038982391357e-01 -4.613803625106811523e-01 -1.575452685356140137e-01
-3.159526884555816650e-01 6.844544783234596252e-03 -2.667075395584106445e-01
3.731994032859802246e-01 -2.749447524547576904e-01 -6.063463166356086731e-02
1.374893784523010254e-01 -3.997510671615600586e-01 -3.310027718544006348e-01
2.118211239576339722e-01 -3.514769077301025391e-01 -2.978321611881256104e-01
3.265353739261627197e-01 -2.033123075962066650e-01 -2.064068019390106201e-01
-3.922489285469055176e-01 -1.948757767677307129e-01 -4.176964610815048218e-02
-9.744346141815185547e-03 7.404069304466247559e-01 2.050234973430633545e-01
-2.263396531343460083e-01 6.321251988410949707e-01 -1.572400033473968506e-01
2.826282680034637451e-01 1.756330281496047974e-01 2.853165566921234131e-01
2.332542538642883301e-01 6.951757073402404785e-01 1.006061956286430359e-01
-1.286858469247817993e-01 4.242454469203948975e-01 -3.355163931846618652e-01
2.946411371231079102e-01 6.130596399307250977e-01 2.207586169242858887e-02
3.649413883686065674e-01 3.843815624713897705e-01 -2.854898944497108459e-02
-8.819838613271713257e-02 -7.312386631965637207e-01 -2.194107621908187866e-01
2.108606994152069092e-01 -7.080923914909362793e-01 9.514053165912628174e-02
1.543254107236862183e-01 -1.067163348197937012e-01 -3.690333664417266846e-01
6.442340463399887085e-02 -7.588967680931091309e-02 -4.003765285015106201e-01
-2.108540534973144531e-01 -7.532855272293090820e-01 2.379276230931282043e-02
-3.434819281101226807e-01 3.227603435516357422e-01 -1.500217020511627197e-01
3.629346489906311035e-01 -3.424715101718902588e-01 -4.695682227611541748e-02
-3.243292570114135742e-01 -2.407847791910171509e-01 1.924754530191421509e-01
3.944568932056427002e-01 -9.331043809652328491e-03 -7.277419418096542358e-02
5.493919178843498230e-02 6.004738807678222656e-01 -2.912545204162597656e-01
-2.964774668216705322e-01 3.628785610198974609e-01 1.843250989913940430e-01
3.799441456794738770e-01 -1.000742241740226746e-01 1.346679180860519409e-01
2.404514849185943604e-01 -2.741462588310241699e-01 -2.922410964965820312e-01
3.301348686218261719e-01 1.350008845329284668e-01 2.347060143947601318e-01
-3.487561643123626709e-01 3.934711217880249023e-01 1.455811318010091782e-02
2.186572253704071045e-01 1.458710134029388428e-01 -3.301676213741302490e-01
2.406679540872573853e-01 6.047761440277099609e-02 3.281266391277313232e-01
-2.111988216638565063e-01 2.328085601329803467e-01 -3.373108804225921631e-01
-2.392445504665374756e-01 -5.968933701515197754e-01 -1.991590112447738647e-01
-1.576821208000183105e-01 -4.994958937168121338e-01 2.807607352733612061e-01
-1.616268455982208252e-01 -7.676190733909606934e-01 1.069748550653457642e-01
1.530920267105102539e-01 -4.278055131435394287e-01 3.153838515281677246e-01
2.303306907415390015e-01 -3.507766425609588623e-01 -2.829332351684570312e-01
2.922752201557159424e-01 3.401072025299072266e-01 -2.278209477663040161e-01
-2.138297706842422485e-01 -1.396145224571228027e-01 3.197839260101318359e-01
-3.108977079391479492e-01 -4.318638741970062256e-01 -1.897979825735092163e-01
4.006084501743316650e-01 8.803000301122665405e-02 -2.652188390493392944e-02
-3.753679096698760986e-01 -3.288609683513641357e-01 -2.507979422807693481e-02
-1.685871481895446777e-01 -7.459450364112854004e-01 -1.538458466529846191e-01
5.740713328123092651e-02 -1.034389436244964600e-01 -4.004626274108886719e-01
5.890078470110893250e-02 5.988335609436035156e-01 2.853809893131256104e-01
7.551429420709609985e-02 -1.771909743547439575e-01 3.847984671592712402e-01
-1.039206460118293762e-01 -3.551844954490661621e-01 3.438361287117004395e-01
-3.456741869449615479e-01 -1.974824815988540649e-01 -2.082023173570632935e-01
3.732390105724334717e-01 1.081441342830657959e-01 1.588091552257537842e-01
3.267388641834259033e-01 4.035260975360870361e-01 1.655086129903793335e-01
-2.741310000419616699e-01 -3.776774555444717407e-02 -3.115740120410919189e-01
2.521785497665405273e-01 6.908693313598632812e-01 4.530273005366325378e-02
3.036802709102630615e-01 -1.674999296665191650e-01 -2.452247887849807739e-01
2.576247155666351318e-01 1.358334422111511230e-01 3.112411201000213623e-01
2.967022657394409180e-01 4.764685928821563721e-01 1.802268028259277344e-01
-8.562184870243072510e-02 6.727866530418395996e-01 2.272556722164154053e-01
-1.909860819578170776e-01 -8.739458024501800537e-02 3.375784754753112793e-01
2.576563954353332520e-01 6.780552864074707031e-01 5.637480318546295166e-02
1.062566637992858887e-01 6.396358609199523926e-01 2.551100254058837891e-01
-1.479759663343429565e-01 7.283442616462707520e-01 -1.632809042930603027e-01
-1.191154196858406067e-01 3.902871608734130859e-01 -3.481432795524597168e-01
-2.314245998859405518e-01 2.525739371776580811e-01 -3.198952972888946533e-01
2.717492580413818359e-01 -4.332709014415740967e-01 -2.104486376047134399e-01
-3.865903317928314209e-01 -2.316963970661163330e-01 1.943832635879516602e-02
-2.773875594139099121e-01 -4.533579051494598389e-01 1.916081756353378296e-01
-1.506128609180450439e-01 7.026989459991455078e-01 -1.853386014699935913e-01
7.728876173496246338e-02 3.356029093265533447e-01 3.625933825969696045e-01
1.181045472621917725e-01 -6.594045758247375488e-01 -2.367139160633087158e-01
-3.598236441612243652e-01 -3.446762263774871826e-01 -1.193907558917999268e-01
-3.328313827514648438e-01 -5.082598328590393066e-01 -1.276384759694337845e-02
-9.538109600543975830e-02 -6.153712868690490723e-01 2.626449465751647949e-01
3.820999562740325928e-01 1.753047555685043335e-01 -9.797642379999160767e-02
2.441542595624923706e-01 8.420383185148239136e-02 -3.153234422206878662e-01
2.273063361644744873e-01 -6.730477809906005859e-01 -1.045650318264961243e-01
-3.818565607070922852e-01 1.003231555223464966e-01 -1.269952654838562012e-01
-5.379257723689079285e-02 5.209527909755706787e-02 3.900510966777801514e-01
-3.812556862831115723e-01 1.061841100454330444e-01 8.155502378940582275e-02
-3.742268085479736328e-01 -2.984711714088916779e-02 1.191559061408042908e-01
1.562396287918090820e-01 -5.512394309043884277e-01 2.689336538314819336e-01
-3.711105585098266602e-01 -1.248525902628898621e-01 -1.660996824502944946e-01
-1.369457542896270752e-01 4.060056209564208984e-01 -3.374179005622863770e-01
3.792363107204437256e-01 -8.979693055152893066e-02 -1.178134679794311523e-01
3.153091371059417725e-01 1.615666039288043976e-02 -2.444720715284347534e-01
-9.066163003444671631e-02 -2.706444859504699707e-01 -3.841806054115295410e-01
-3.084812164306640625e-01 1.196217089891433716e-01 2.278060168027877808e-01
-5.186975002288818359e-02 7.698550075292587280e-02 -4.063695371150970459e-01
-2.020881026983261108e-01 9.054538607597351074e-02 3.289733231067657471e-01
-3.462913930416107178e-01 -2.929976582527160645e-01 -1.812749207019805908e-01
2.740182280540466309e-01 2.198519408702850342e-01 2.873215079307556152e-01
-2.861613929271697998e-01 5.755502581596374512e-01 3.626557439565658569e-02
-3.309970498085021973e-01 -3.113128542900085449e-01 1.619980633258819580e-01
-2.403304725885391235e-01 -2.559591233730316162e-01 -3.199955523014068604e-01
2.660999596118927002e-01 -1.222896650433540344e-01 3.026750981807708740e-01
1.648526638746261597e-01 -6.144670248031616211e-01 2.316456586122512817e-01
2.402251064777374268e-01 3.742204308509826660e-01 -2.734715342521667480e-01
-1.585854887962341309e-01 -2.488178163766860962e-01 3.400251865386962891e-01
-1.789169311523437500e-01 5.192868113517761230e-01 -2.760790586471557617e-01
-2.412721365690231323e-01 5.877218246459960938e-01 -1.731823682785034180e-01
3.047657608985900879e-01 5.901803374290466309e-01 5.898591130971908569e-03
-2.516250312328338623e-01 -3.416500687599182129e-01 -2.933450937271118164e-01
-3.231855034828186035e-01 -1.276088356971740723e-01 2.116191983222961426e-01
1.736692935228347778e-01 -5.194943547248840332e-01 2.722418308258056641e-01
1.879697740077972412e-01 -6.809788942337036133e-01 1.635766327381134033e-01
1.558606326580047607e-02 -5.089428424835205078e-01 -3.345655798912048340e-01
-1.740345954895019531e-01 7.470879554748535156e-01 -1.013797149062156677e-01
-3.366903662681579590e-01 -1.164306029677391052e-01 1.918758749961853027e-01
3.883720338344573975e-01 -1.690450012683868408e-01 7.625748962163925171e-02
4.147888720035552979e-02 8.375925421714782715e-01 1.029617115855216980e-01
-3.455170094966888428e-01 4.051494002342224121e-01 -5.956255272030830383e-02
3.655637800693511963e-01 -1.892815530300140381e-01 1.509764045476913452e-01
-3.675728440284729004e-01 8.421934209764003754e-03 1.352648586034774780e-01
4.032634198665618896e-01 5.506941676139831543e-02 1.390211749821901321e-02
2.828745245933532715e-01 -5.370241403579711914e-01 -1.288618594408035278e-01
1.599992215633392334e-01 -6.643558144569396973e-01 -2.034168243408203125e-01
-2.103733569383621216e-01 1.012043580412864685e-01 -3.536368012428283691e-01
1.790038943290710449e-01 7.775084376335144043e-01 -6.735717505216598511e-02
3.327848911285400391e-01 1.718096584081649780e-01 -2.086229920387268066e-01
2.114603221416473389e-01 -6.935264468193054199e-01 1.153513640165328979e-01
1.627278514206409454e-02 8.613370656967163086e-01 -6.336157023906707764e-02
2.471552193164825439e-01 2.021485865116119385e-01 -3.022406697273254395e-01
3.170560300350189209e-01 2.503118515014648438e-01 2.338666170835494995e-01
5.624429788440465927e-03 -1.030194759368896484e-01 3.946459889411926270e-01
3.649321496486663818e-01 1.797435991466045380e-02 -1.625652760267257690e-01
-1.339656114578247070e-01 -3.153326809406280518e-01 -3.655078113079071045e-01
2.728861272335052490e-01 -3.782039284706115723e-01 -2.307568341493606567e-01
-3.008452057838439941e-01 -1.583523899316787720e-01 2.380761504173278809e-01
-2.933477163314819336e-01 1.450875103473663330e-01 2.434388548135757446e-01
1.919897049665451050e-01 -7.552102208137512207e-01 4.279014468193054199e-02
1.362343430519104004e-01 -2.169432491064071655e-01 3.655828535556793213e-01
-3.080421388149261475e-01 1.898502856492996216e-01 2.174655199050903320e-01
3.632040917873382568e-01 1.686420142650604248e-01 -1.522153764963150024e-01
2.366049680858850479e-03 5.037135630846023560e-02 -4.087241590023040771e-01
-1.620625555515289307e-01 -6.603819131851196289e-01 -2.300880402326583862e-01
3.043061792850494385e-01 -3.075722157955169678e-01 -2.123821377754211426e-01
-9.734112769365310669e-02 4.264440834522247314e-01 3.250157535076141357e-01
1.029144302010536194e-01 -2.638037689030170441e-02 -3.918860256671905518e-01
1.415262967348098755e-01 -4.359201192855834961e-01 -3.190000355243682861e-01
-2.851349413394927979e-01 5.893567800521850586e-01 -1.330279000103473663e-02
-3.536768555641174316e-01 -3.960462212562561035e-01 -1.012903153896331787e-01
1.634134501218795776e-01 5.153584480285644531e-01 2.868782281875610352e-01
-3.980669379234313965e-01 -7.983127981424331665e-02 7.361092604696750641e-03
-1.895552873611450195e-01 3.278378248214721680e-01 -3.314995765686035156e-01
3.949824273586273193e-01 -4.829651117324829102e-02 8.738778531551361084e-02
2.937816083431243896e-01 4.261098206043243408e-01 -1.948350220918655396e-01
6.642424315214157104e-02 -8.366847634315490723e-01 -9.890814870595932007e-02
-3.697637915611267090e-01 1.757972985506057739e-01 -1.437712162733078003e-01
-3.468519151210784912e-01 1.862756162881851196e-01 1.534174829721450806e-01
-1.289221495389938354e-01 9.393547475337982178e-02 3.664851784706115723e-01
2.423342168331146240e-01 -6.873668432235717773e-01 5.023618228733539581e-03
1.721502095460891724e-01 3.814706504344940186e-01 -3.201662600040435791e-01
-1.443497389554977417e-01 -6.478251218795776367e-01 2.216142117977142334e-01
-1.594140678644180298e-01 -7.013400197029113770e-01 1.749504953622817993e-01
2.755817472934722900e-01 -7.343838457018136978e-03 3.010572493076324463e-01
2.900475859642028809e-01 -5.552008152008056641e-01 -9.159317612648010254e-02
-1.426698714494705200e-01 5.619261860847473145e-01 -2.788761258125305176e-01
3.271254897117614746e-01 -3.624490201473236084e-01 1.665237694978713989e-01
-1.229715347290039062e-02 8.074892759323120117e-01 -1.542925685644149780e-01
-3.879460394382476807e-01 1.815824061632156372e-01 -3.544273972511291504e-02
-3.697972297668457031e-01 9.505228698253631592e-02 -1.650491803884506226e-01
-1.387484967708587646e-01 2.735006809234619141e-01 3.420431613922119141e-01
4.397938773036003113e-02 8.601000905036926270e-01 -5.805961042642593384e-02
2.801804542541503906e-01 -5.876818299293518066e-01 -7.931395620107650757e-02
3.957530558109283447e-01 -6.009270995855331421e-02 -5.800257623195648193e-02
-7.326077669858932495e-02 -3.324806988239288330e-01 3.570561707019805908e-01
-1.405762881040573120e-01 -2.542379498481750488e-01 3.475797176361083984e-01
5.397407338023185730e-02 5.476031899452209473e-01 3.068006932735443115e-01
1.724399328231811523e-01 -5.360265970230102539e-01 2.659550905227661133e-01
1.752042956650257111e-02 -7.450610399246215820e-01 -2.181694954633712769e-01
-1.126705184578895569e-01 6.578030586242675781e-01 -2.432861924171447754e-01
2.975387871265411377e-01 5.996915102005004883e-01 -3.592268005013465881e-02
-6.307881325483322144e-02 -3.247162103652954102e-01 -3.796395957469940186e-01
-3.450084328651428223e-01 -1.237151846289634705e-01 1.768804639577865601e-01
3.273088485002517700e-02 -8.018502593040466309e-01 -1.642878651618957520e-01
3.881285190582275391e-01 8.349862694740295410e-02 -9.584899991750717163e-02
6.102521438151597977e-03 2.171481996774673462e-01 3.846757709980010986e-01
-2.059191614389419556e-01 2.996857166290283203e-01 -3.278613388538360596e-01
-2.297693043947219849e-01 -1.554301977157592773e-01 -3.401641845703125000e-01
2.489231079816818237e-01 -6.662182807922363281e-01 5.742298066616058350e-02
1.107771918177604675e-01 -5.869868993759155273e-01 -2.783458530902862549e-01
2.844313383102416992e-01 5.384152531623840332e-01 -1.472512930631637573e-01
-1.083979383111000061e-01 2.533477246761322021e-01 3.575805127620697021e-01
-2.769533693790435791e-01 5.576832294464111328e-01 -1.312862634658813477e-01
-3.540368974208831787e-01 1.084728762507438660e-01 -1.984250992536544800e-01
-1.590539813041687012e-01 5.954600572586059570e-01 -2.523730099201202393e-01
-1.451271772384643555e-01 2.080685198307037354e-01 -3.737678527832031250e-01
-2.501964867115020752e-01 3.774841129779815674e-01 2.382018715143203735e-01
1.691141165792942047e-02 4.918163120746612549e-01 3.274571001529693604e-01
-1.541717946529388428e-01 6.699022836983203888e-03 -3.847324848175048828e-01
-2.233167886734008789e-01 -6.999078989028930664e-01 9.483796358108520508e-02
-7.544262800365686417e-03 -8.511895686388015747e-02 3.948948085308074951e-01
2.026757597923278809e-01 2.993901073932647705e-01 -3.196292221546173096e-01
-5.162145569920539856e-02 5.059005618095397949e-01 -3.301200270652770996e-01
1.527130156755447388e-01 -2.089681029319763184e-01 -3.600926697254180908e-01
3.386523723602294922e-01 -6.859944015741348267e-02 -2.073876857757568359e-01
-2.449587285518646240e-01 -5.435092449188232422e-01 1.890873312950134277e-01
1.235156059265136719e-01 6.390409469604492188e-01 2.490022480487823486e-01
1.471072435379028320e-01 -6.899202466011047363e-01 1.947626620531082153e-01
-1.716329157352447510e-01 -4.503107666969299316e-01 2.888310253620147705e-01
2.824872136116027832e-01 -9.119586646556854248e-02 -2.782229483127593994e-01
3.888803720474243164e-01 2.270448803901672363e-01 6.320159137248992920e-02
2.912676632404327393e-01 3.257905840873718262e-01 -2.331807911396026611e-01
-1.012492552399635315e-01 1.562584787607192993e-01 3.717492222785949707e-01
-2.710668444633483887e-01 4.633512496948242188e-01 1.762612313032150269e-01
2.354381829500198364e-01 3.495504558086395264e-01 2.934341132640838623e-01
-1.928435117006301880e-01 -6.269472241401672363e-01 -2.276170849800109863e-01
1.390803456306457520e-01 5.126262903213500977e-01 -2.976546585559844971e-01
-5.680729076266288757e-02 -5.590199232101440430e-01 2.977235019207000732e-01
-9.366279095411300659e-02 7.024947553873062134e-03 -4.021754860877990723e-01
-1.714238673448562622e-01 4.001264870166778564e-01 -3.228951990604400635e-01
-1.631306856870651245e-01 7.556760311126708984e-01 -1.072990745306015015e-01
-4.845794290304183960e-02 -7.043156027793884277e-01 -2.467357367277145386e-01
6.660697609186172485e-02 2.514212727546691895e-01 -3.839288651943206787e-01
-3.692053258419036865e-01 1.342911869287490845e-01 -1.580179631710052490e-01
5.246229469776153564e-02 -5.990581512451171875e-01 -2.938426733016967773e-01
-1.338274031877517700e-01 -8.104347586631774902e-01 7.812096923589706421e-02
-2.694642841815948486e-01 -5.294345021247863770e-01 1.640268117189407349e-01
3.194929063320159912e-01 1.754390597343444824e-01 2.440687119960784912e-01
-2.249092012643814087e-01 -7.233501672744750977e-01 5.275458842515945435e-02
4.059478640556335449e-02 -2.229570895433425903e-01 3.835081160068511963e-01
2.747276611626148224e-02 6.534179449081420898e-01 -2.698973417282104492e-01
3.395757675170898438e-01 2.235534340143203735e-01 2.059790492057800293e-01
3.778741657733917236e-01 -2.859096527099609375e-01 1.440604310482740402e-02
2.599490880966186523e-01 -2.321393229067325592e-02 3.139256536960601807e-01
6.426606327295303345e-02 -4.597620069980621338e-01 -3.409729599952697754e-01
-3.172518908977508545e-01 -5.351831316947937012e-01 4.554899409413337708e-02
-3.179466724395751953e-01 4.519391059875488281e-01 8.659961819648742676e-02
-2.360803186893463135e-01 -7.220725417137145996e-01 -1.812937669456005096e-03
-3.919133245944976807e-01 -1.652041524648666382e-01 -7.379283010959625244e-02
-1.608454585075378418e-01 -6.408996582031250000e-01 2.144565880298614502e-01
-6.018028035759925842e-02 7.022720575332641602e-01 2.188768237829208374e-01
2.273725122213363647e-01 6.786895990371704102e-01 -1.237399056553840637e-01
2.137554287910461426e-01 5.212559700012207031e-01 -2.447500526905059814e-01
1.292226910591125488e-01 -9.547977149486541748e-02 3.791559934616088867e-01
1.615598648786544800e-01 3.106774985790252686e-01 -3.412581980228424072e-01
2.992608249187469482e-01 3.515839576721191406e-01 2.300243377685546875e-01
1.647182703018188477e-01 7.982861399650573730e-01 -4.873687401413917542e-02
2.952979505062103271e-01 5.693593621253967285e-01 1.103101670742034912e-01
3.312363624572753906e-01 -4.356932938098907471e-01 -8.893065154552459717e-02
-2.393517196178436279e-01 -2.889292538166046143e-01 2.804179489612579346e-01
-2.820039987564086914e-01 3.704619705677032471e-01 -2.390247434377670288e-01
2.030614465475082397e-01 2.595489323139190674e-01 3.326504528522491455e-01
-3.574725091457366943e-01 -3.635848164558410645e-01 -1.142613440752029419e-01
-9.042780846357345581e-02 8.158519268035888672e-01 -1.039994135499000549e-01
1.059687212109565735e-01 -7.656115293502807617e-01 -1.627183258533477783e-01
1.264104396104812622e-01 -6.412162184715270996e-01 2.396414726972579956e-01
1.714003086090087891e-01 -7.268327474594116211e-01 1.371856927871704102e-01
-1.080169454216957092e-01 -3.069718778133392334e-01 3.517052829265594482e-01
-1.501202285289764404e-01 6.635705828666687012e-01 -2.165528535842895508e-01
9.582117944955825806e-02 -5.277543067932128906e-01 -3.089025020599365234e-01
1.456279903650283813e-01 -7.778616547584533691e-01 -1.048833429813385010e-01
-3.794596493244171143e-01 -3.412073105573654175e-02 -1.503006964921951294e-01
-4.948506504297256470e-02 -5.942414402961730957e-01 2.849293053150177002e-01
2.512825727462768555e-01 -6.717182397842407227e-01 -1.100318506360054016e-03
-4.964841157197952271e-02 6.516101956367492676e-01 -2.677955627441406250e-01
-1.375107467174530029e-01 5.508224666118621826e-02 3.648341000080108643e-01
-1.038457602262496948e-01 -6.350175738334655762e-01 -2.728792130947113037e-01
-3.809411227703094482e-01 2.341596633195877075e-01 -4.158779978752136230e-02
-1.058350577950477600e-01 7.705613374710083008e-01 1.350466012954711914e-01
3.677774071693420410e-01 2.819182276725769043e-01 -1.041102781891822815e-01
-2.948906421661376953e-01 -2.243493348360061646e-01 2.359802871942520142e-01
3.245344460010528564e-01 4.148591160774230957e-01 -1.465316712856292725e-01
-1.213373169302940369e-01 -8.357123136520385742e-01 -6.326565891504287720e-02
-3.799856305122375488e-01 1.836715340614318848e-01 -1.016260534524917603e-01
3.461683690547943115e-01 4.673033654689788818e-01 2.819005772471427917e-02
-3.135171532630920410e-01 2.274478226900100708e-01 -2.412960380315780640e-01
-3.235993981361389160e-01 -4.947950597852468491e-03 2.158274501562118530e-01
3.032780885696411133e-01 -5.235547423362731934e-01 1.011569425463676453e-01
2.137971855700016022e-02 8.623931407928466797e-01 5.078639462590217590e-02
-2.045080363750457764e-01 6.558991670608520508e-01 1.382733434438705444e-01
3.165325522422790527e-01 5.319395065307617188e-01 8.828554302453994751e-02
-3.948196470737457275e-01 -1.664084196090698242e-01 -1.299612130969762802e-02
1.644263863563537598e-01 -1.623694598674774170e-01 3.613447844982147217e-01
3.148919343948364258e-01 -8.970137685537338257e-02 -2.402828782796859741e-01
-2.033631205558776855e-01 7.179504036903381348e-01 -8.665114641189575195e-02
-5.412576720118522644e-02 3.815148174762725830e-01 3.487786650657653809e-01
2.590391635894775391e-01 -5.716426968574523926e-01 -1.471543610095977783e-01
-2.439883947372436523e-01 4.062250256538391113e-01 -2.679958045482635498e-01
3.195860087871551514e-01 3.770011067390441895e-01 1.910214722156524658e-01
-1.506037563085556030e-01 -4.889015853404998779e-01 -3.153309524059295654e-01
-3.234463334083557129e-01 4.522751271724700928e-01 6.715120375156402588e-02
2.450865805149078369e-01 -6.685779094696044922e-01 6.816812604665756226e-02
1.346055120229721069e-01 7.935908436775207520e-01 -1.109969839453697205e-01
-2.896527647972106934e-01 5.723508000373840332e-01 2.266844362020492554e-02
2.807621657848358154e-01 3.180169463157653809e-01 2.609498798847198486e-01
-3.783125579357147217e-01 2.435547113418579102e-01 1.362236123532056808e-02
2.701123058795928955e-01 4.562378227710723877e-01 -2.138809412717819214e-01
1.227983236312866211e-01 2.607313096523284912e-01 3.655879199504852295e-01
-1.610857695341110229e-01 3.762710690498352051e-01 -3.346846103668212891e-01
2.245164215564727783e-01 7.380338907241821289e-01 -4.806481301784515381e-03
7.989598065614700317e-02 -3.624095767736434937e-02 3.926059007644653320e-01
1.643105000257492065e-01 1.160935014486312866e-01 -3.642961382865905762e-01
2.379571050405502319e-01 -5.107116103172302246e-01 -2.158996462821960449e-01
2.572610080242156982e-01 -4.496964812278747559e-01 -2.216764390468597412e-01
3.689922988414764404e-01 -2.597906440496444702e-02 1.723718792200088501e-01
-3.252354264259338379e-01 1.766053885221481323e-01 1.946421414613723755e-01
5.681003443896770477e-03 -1.520320326089859009e-01 -4.036586284637451172e-01
-7.937651872634887695e-02 -7.664271593093872070e-01 1.727701574563980103e-01
3.988387286663055420e-01 -4.870169796049594879e-03 7.170119136571884155e-02
3.140297532081604004e-01 -1.183585748076438904e-01 2.536046206951141357e-01
2.760772705078125000e-01 3.909680526703596115e-03 3.007607161998748779e-01
2.209941856563091278e-02 -4.533659219741821289e-01 3.390052020549774170e-01
-2.480119168758392334e-01 2.535053491592407227e-01 -3.066216707229614258e-01
-1.079275608062744141e-01 -7.859842777252197266e-01 -1.615688502788543701e-01
-3.319979608058929443e-01 4.203921854496002197e-01 -1.103590205311775208e-01
1.959653049707412720e-01 -7.451834678649902344e-01 5.933558195829391479e-02
-2.283848673105239868e-01 -3.140490055084228516e-01 -3.178873360157012939e-01
-9.451804310083389282e-02 -7.815569639205932617e-01 -1.736586689949035645e-01
-1.597625762224197388e-01 2.657812535762786865e-01 3.330514430999755859e-01
8.265559375286102295e-02 5.945536494255065918e-01 2.832494378089904785e-01
-1.608882397413253784e-01 4.884403944015502930e-01 2.740013599395751953e-01
-2.206398397684097290e-01 -2.231133133172988892e-01 -3.385969996452331543e-01
9.784917533397674561e-02 7.250728011131286621e-01 -2.065642625093460083e-01
8.012351393699645996e-02 -2.099037468433380127e-01 3.804844915866851807e-01
3.126252591609954834e-01 1.841547712683677673e-02 2.632614374160766602e-01
-2.908534407615661621e-01 -2.931056916713714600e-02 2.571874260902404785e-01
1.115069910883903503e-02 -4.834434986114501953e-01 3.304002583026885986e-01
1.660631000995635986e-01 8.013495206832885742e-01 3.573584929108619690e-02
1.461070030927658081e-02 3.633310496807098389e-01 -3.712669909000396729e-01
2.908246815204620361e-01 6.124152541160583496e-01 -4.306554421782493591e-02
1.385698616504669189e-01 8.115072846412658691e-01 7.438315451145172119e-02
2.634028196334838867e-01 3.804376721382141113e-01 -2.491571605205535889e-01
-2.434660941362380981e-01 -6.857185363769531250e-01 -1.039485260844230652e-01
2.391397207975387573e-01 3.036268055438995361e-01 -2.916081845760345459e-01
1.757402122020721436e-01 -1.103138998150825500e-01 3.609543144702911377e-01
-3.456985950469970703e-01 -2.471134513616561890e-01 1.529472172260284424e-01
3.618269562721252441e-01 -1.649009287357330322e-01 -1.476506888866424561e-01
-1.466751396656036377e-01 1.527467668056488037e-01 -3.795233070850372314e-01
7.961133122444152832e-02 2.706161141395568848e-01 -3.781718909740447998e-01
3.881804049015045166e-01 -9.164000302553176880e-02 1.081532537937164307e-01
-2.491756342351436615e-03 -4.325962662696838379e-01 3.445417284965515137e-01
2.222583144903182983e-01 -5.657930374145507812e-01 2.097923755645751953e-01
-3.788259252905845642e-02 -6.280338764190673828e-02 3.925971686840057373e-01
-2.522795200347900391e-01 -6.172028183937072754e-01 -1.651106327772140503e-01
2.564449906349182129e-01 5.060825943946838379e-01 -2.077263593673706055e-01
-2.969181537628173828e-01 2.878671288490295410e-01 -2.475234419107437134e-01
4.113162308931350708e-02 -2.196376770734786987e-01 -3.932240903377532959e-01
-3.515985012054443359e-01 3.162369430065155029e-01 -1.300336122512817383e-01
1.480343043804168701e-01 -1.841166466474533081e-01 3.654377460479736328e-01
2.150535136461257935e-01 1.693152636289596558e-01 -3.304185867309570312e-01
-9.714249521493911743e-02 8.359671384096145630e-02 -3.990555405616760254e-01
-2.286374755203723907e-02 -8.601539134979248047e-01 7.033723592758178711e-02
-2.239455580711364746e-01 -6.242239475250244141e-01 1.647762954235076904e-01
4.015523195266723633e-01 1.638690475374460220e-03 5.049592256546020508e-02
2.693824172019958496e-01 4.573980271816253662e-01 2.268620431423187256e-01
2.235372513532638550e-01 -7.150303125381469727e-01 -2.411914989352226257e-02
9.677920490503311157e-02 5.752024650573730469e-01 -2.907295525074005127e-01
3.072274625301361084e-01 -3.352212011814117432e-01 2.126377820968627930e-01
-3.536521494388580322e-01 1.285336464643478394e-01 1.520732790231704712e-01
2.056678533554077148e-01 -7.242406606674194336e-01 -7.472662627696990967e-02
2.748737037181854248e-01 -6.261919736862182617e-01 1.040140632539987564e-02
-3.001169562339782715e-01 -4.830270409584045410e-01 1.402305960655212402e-01
-1.486352086067199707e-01 1.472594887018203735e-01 3.540124595165252686e-01
-3.040500581264495850e-01 3.946292102336883545e-01 1.573398262262344360e-01
-3.497197926044464111e-01 -1.846839636564254761e-01 -2.031076997518539429e-01
3.219896554946899414e-01 3.389244526624679565e-02 -2.354297637939453125e-01
-3.045129477977752686e-01 4.836787283420562744e-01 9.629686176776885986e-02
2.498612254858016968e-01 -2.610445618629455566e-01 -2.864849865436553955e-01
-2.553370296955108643e-01 5.843200683593750000e-01 1.179756298661231995e-01
-3.850823640823364258e-01 -1.533991694450378418e-01 6.869990378618240356e-02
-4.045118391513824463e-02 -4.581725895404815674e-01 3.340059220790863037e-01
1.324541270732879639e-01 6.993021965026855469e-01 -2.064004093408584595e-01
1.372875720262527466e-01 7.425497770309448242e-01 -1.677848249673843384e-01
-2.122677415609359741e-01 5.669658780097961426e-01 1.942084580659866333e-01
4.018330574035644531e-01 1.031837686896324158e-01 1.360080298036336899e-02
3.786770701408386230e-01 1.986006349325180054e-01 -1.023894399404525757e-01
-3.116569519042968750e-01 2.421206086874008179e-01 2.006769478321075439e-01
-3.325403630733489990e-01 2.871280908584594727e-01 -1.916553676128387451e-01
1.491606980562210083e-01 2.019227743148803711e-01 -3.636288046836853027e-01
-1.100343242287635803e-01 2.889141440391540527e-01 -3.727158010005950928e-01
-3.386441171169281006e-01 -2.297737449407577515e-01 -2.138780355453491211e-01
-1.931909918785095215e-01 -5.265647172927856445e-01 -2.778270542621612549e-01
-3.704499602317810059e-01 6.499570608139038086e-02 1.229892149567604065e-01
1.099219322204589844e-01 8.395541310310363770e-01 -4.505771026015281677e-02
-2.660255134105682373e-01 -1.742215901613235474e-01 2.739825844764709473e-01
2.727333307266235352e-01 -6.291335225105285645e-01 2.594380080699920654e-02
-2.690131664276123047e-01 3.294083476066589355e-01 2.324578166007995605e-01
2.735837399959564209e-01 -2.706177830696105957e-01 -2.607546746730804443e-01
-7.729174196720123291e-02 6.448488235473632812e-01 -2.646663486957550049e-01
-1.643076539039611816e-01 6.897169351577758789e-01 1.584367752075195312e-01
3.834722936153411865e-01 6.924729794263839722e-02 -1.130947172641754150e-01
-2.624538838863372803e-01 -4.654390513896942139e-01 2.054691463708877563e-01
2.017100304365158081e-01 -3.123560361564159393e-02 3.521016836166381836e-01
-8.439555019140243530e-02 -8.134288191795349121e-01 -1.423538923263549805e-01
1.095059067010879517e-01 2.402018755674362183e-01 3.719153702259063721e-01
1.564883440732955933e-01 -6.077308058738708496e-01 -2.410629391670227051e-01
3.863524794578552246e-01 -1.744616627693176270e-01 -6.289077550172805786e-02
1.007953956723213196e-01 -1.079255193471908569e-01 3.857141733169555664e-01
-1.932212561368942261e-01 -1.618822664022445679e-01 -3.612254858016967773e-01
6.120193377137184143e-02 -8.599527478218078613e-01 -4.065340012311935425e-02
3.907926380634307861e-01 -9.431982785463333130e-02 -7.429866492748260498e-02
-7.842607051134109497e-02 3.374786972999572754e-01 -3.708660006523132324e-01
-3.530830740928649902e-01 -3.694700598716735840e-01 8.097145706415176392e-02
-7.847484201192855835e-02 -6.620160341262817383e-01 2.448309957981109619e-01
3.713797926902770996e-01 1.387164462357759476e-03 1.681675612926483154e-01
2.716622129082679749e-02 -4.010832905769348145e-01 3.523735105991363525e-01
-4.767699539661407471e-02 -7.518145442008972168e-01 1.953166425228118896e-01
1.378130614757537842e-01 -2.795041501522064209e-01 -3.564942181110382080e-01
1.604876816272735596e-01 2.022438198328018188e-01 3.606246411800384521e-01
3.252065181732177734e-01 -1.518912613391876221e-01 2.341680377721786499e-01
-1.765926182270050049e-01 5.820962190628051758e-01 -2.471365332603454590e-01
5.434782058000564575e-02 2.722429931163787842e-01 -3.831874430179595947e-01
-3.970642983913421631e-01 -9.764388948678970337e-02 1.260889787226915359e-02
-1.642625927925109863e-01 -2.405210211873054504e-02 -3.808737099170684814e-01
2.995770871639251709e-01 -4.956780672073364258e-01 -1.257544606924057007e-01
3.581232130527496338e-01 3.668298423290252686e-01 -8.506540954113006592e-02
8.806227147579193115e-02 4.134221374988555908e-01 -3.470800817012786865e-01
2.016130685806274414e-01 -5.321450233459472656e-01 2.467799186706542969e-01
-2.460754066705703735e-01 5.096683502197265625e-01 -2.192410081624984741e-01
1.223476380109786987e-01 -1.180781275033950806e-01 -3.815832734107971191e-01
-3.482055664062500000e-01 3.834040164947509766e-01 3.756662458181381226e-02
3.127914071083068848e-01 5.494531393051147461e-01 -6.070890650153160095e-02
-3.671067953109741211e-01 -3.547208607196807861e-01 2.881907299160957336e-02
-2.381415292620658875e-02 8.661509752273559570e-01 1.020559575408697128e-02
2.472109198570251465e-01 7.731258124113082886e-02 3.228425085544586182e-01
-7.308426499366760254e-02 -6.519659608602523804e-02 3.859203159809112549e-01
6.896274536848068237e-02 3.574256002902984619e-01 -3.648399412631988525e-01
-3.810847699642181396e-01 -2.375465631484985352e-01 5.135660618543624878e-02
-9.120412170886993408e-02 4.575855284929275513e-02 -4.018624722957611084e-01
2.491775006055831909e-01 -3.536008596420288086e-01 2.734939455986022949e-01
-3.010957539081573486e-01 -5.405621528625488281e-01 9.439570456743240356e-02
-4.796558246016502380e-02 -1.993220150470733643e-01 -3.988987505435943604e-01
-3.812037408351898193e-01 -2.835720479488372803e-01 7.249473594129085541e-03
-3.170346021652221680e-01 4.946008622646331787e-01 3.387464955449104309e-02
