5.157210826873779297e-01 3.750828206539154053e-01 6.488451361656188965e-02
1.415104568004608154e-01 3.285045623779296875e-01 4.447896480560302734e-01
-3.321381807327270508e-01 4.730490744113922119e-01 -1.323729008436203003e-01
9.171236306428909302e-02 -4.288940727710723877e-01 4.155690073966979980e-01
1.736932098865509033e-01 -1.124348640441894531e-01 -5.247017741203308105e-01
-4.512055516242980957e-01 -4.381669461727142334e-01 1.994926035404205322e-01
-4.872263371944427490e-01 -2.825729548931121826e-02 -3.663428723812103271e-01
3.887396454811096191e-01 -2.144128382205963135e-01 4.011532366275787354e-01
-4.982019960880279541e-01 -4.237175583839416504e-01 -7.239475101232528687e-02
-4.600046947598457336e-02 -3.417794406414031982e-01 -4.565132856369018555e-01
-5.684255957603454590e-01 -2.721535861492156982e-01 1.944875568151473999e-01
6.113045811653137207e-01 1.377352923154830933e-01 1.261749416589736938e-01
2.664597705006599426e-02 1.666765213012695312e-01 5.343679189682006836e-01
-2.942452430725097656e-01 4.557953178882598877e-01 -2.366314977407455444e-01
5.998411178588867188e-01 2.203826457262039185e-01 -9.539099037647247314e-02
-2.739380300045013428e-01 -4.707016944885253906e-01 -2.865132093429565430e-01
3.899627923965454102e-01 4.701611995697021484e-01 1.334045827388763428e-01
-4.053324759006500244e-01 -5.056456327438354492e-01 -6.869339197874069214e-02
2.744599282741546631e-01 5.221493244171142578e-01 1.604552268981933594e-01
-5.167893767356872559e-01 3.176628649234771729e-01 -2.449430897831916809e-02
-5.284542441368103027e-01 -2.889052778482437134e-02 3.310928046703338623e-01
8.407993614673614502e-02 -2.379468083381652832e-01 -5.025764703750610352e-01
-5.848005414009094238e-01 -7.227601855993270874e-02 -2.338453233242034912e-01
-3.526980876922607422e-01 3.960136473178863525e-01 -2.657726705074310303e-01
-4.442638456821441650e-01 -2.875342667102813721e-01 -3.271445333957672119e-01
-1.132190078496932983e-01 -5.918067097663879395e-01 -1.375040262937545776e-01
3.541094660758972168e-01 5.045101642608642578e-01 9.851768612861633301e-02
2.745440006256103516e-01 -5.181070566177368164e-01 -1.145049408078193665e-01
-4.514236152172088623e-01 3.720075488090515137e-01 1.113327220082283020e-01
-1.495097875595092773e-01 -5.837551951408386230e-01 -1.475837379693984985e-01
-3.667284548282623291e-01 4.528457522392272949e-01 -1.162013486027717590e-01
-1.535211950540542603e-01 -4.728957414627075195e-01 -3.323262035846710205e-01
4.179528653621673584e-01 -3.210376799106597900e-01 -2.693813741207122803e-01
5.476939678192138672e-01 3.377275466918945312e-01 -6.353202462196350098e-02
-1.025471538305282593e-01 5.613559484481811523e-01 -1.705865263938903809e-01
-5.274370908737182617e-01 4.840245842933654785e-02 -3.124575018882751465e-01
3.387471139430999756e-01 -2.521919831633567810e-02 4.778489470481872559e-01
-1.438658088445663452e-01 3.116314709186553955e-01 -4.664565920829772949e-01
6.083078384399414062e-01 -6.590314209461212158e-02 -1.404020786285400391e-01
5.246874094009399414e-01 -3.176310360431671143e-01 1.548720058053731918e-02
1.077018864452838898e-02 2.799903601408004761e-02 5.637794733047485352e-01
5.464445948600769043e-01 -9.149016439914703369e-02 2.727961540222167969e-01
-1.383576989173889160e-01 5.404533147811889648e-01 -2.039732038974761963e-01
-1.686012744903564453e-01 -5.122139453887939453e-01 3.286862969398498535e-01
-2.289470285177230835e-01 1.784807294607162476e-01 4.879510402679443359e-01
-5.406880378723144531e-01 2.835284769535064697e-01 1.184306759387254715e-02
1.886965334415435791e-01 2.302870750427246094e-01 -5.033914446830749512e-01
3.847084045410156250e-01 -3.552722334861755371e-01 3.029782474040985107e-01
-4.930506050586700439e-01 -4.334481060504913330e-01 -5.640903860330581665e-02
4.906740486621856689e-01 3.616663217544555664e-01 1.661645174026489258e-01
3.498238921165466309e-01 -6.942021846771240234e-02 -4.598816931247711182e-01
-5.355459451675415039e-01 2.267756909132003784e-01 -1.917016208171844482e-01
-6.148203611373901367e-01 -2.262854129076004028e-01 -6.516028940677642822e-02
5.773847699165344238e-01 1.931702345609664917e-01 1.805062443017959595e-01
-4.062796533107757568e-01 -5.738009139895439148e-02 4.459310173988342285e-01
-6.443743109703063965e-01 -3.540688008069992065e-02 -3.955654427409172058e-02
6.087064146995544434e-01 2.079002559185028076e-01 -6.507917493581771851e-02
5.306773781776428223e-01 2.044825702905654907e-01 2.588739395141601562e-01
5.727143287658691406e-01 -2.297692894935607910e-01 -4.509275034070014954e-02
-6.917669624090194702e-02 5.374916195869445801e-01 2.073708176612854004e-01
1.007367372512817383e-01 5.968186259269714355e-01 -4.910748824477195740e-02
-3.293457925319671631e-01 2.767202258110046387e-01 3.827537000179290771e-01
4.042433500289916992e-01 -3.302410542964935303e-01 3.063858747482299805e-01
-1.201168373227119446e-01 2.909180521965026855e-02 -5.512686967849731445e-01
-1.604429334402084351e-01 -4.640855491161346436e-01 -3.403462171554565430e-01
4.513844251632690430e-01 -3.092190027236938477e-01 -2.379603087902069092e-01
-4.000282883644104004e-01 2.064704149961471558e-01 3.756047487258911133e-01
-2.687694132328033447e-01 -5.654428601264953613e-01 1.652098745107650757e-01
-3.581629693508148193e-01 -2.616053819656372070e-01 -4.074767529964447021e-01
2.691139280796051025e-01 -5.094782710075378418e-01 1.955407112836837769e-01
1.710503995418548584e-01 2.840695977210998535e-01 4.649938046932220459e-01
-1.286202371120452881e-01 1.006515771150588989e-01 5.402145981788635254e-01
-6.176418438553810120e-02 -4.023803472518920898e-01 -4.122990369796752930e-01
-5.348074063658714294e-02 -6.044551134109497070e-01 -1.044779717922210693e-01
-5.494575016200542450e-03 3.249308168888092041e-01 4.585065245628356934e-01
2.830297648906707764e-01 -4.716717898845672607e-01 -2.129609435796737671e-01
-1.360477507114410400e-01 4.222310483455657959e-01 -3.844383358955383301e-01
7.150673866271972656e-02 -4.521016776561737061e-01 -3.555987179279327393e-01
-2.497269362211227417e-01 1.364558339118957520e-01 -5.006588101387023926e-01
1.170102506875991821e-01 -1.373527497053146362e-01 5.473480224609375000e-01
-2.000478841364383698e-02 3.986337184906005859e-01 -4.307284057140350342e-01
4.053074121475219727e-02 -2.129746973514556885e-01 -5.179479122161865234e-01
4.286231100559234619e-01 4.709444344043731689e-01 -7.427788805216550827e-04
-2.528118491172790527e-01 5.089084804058074951e-02 -5.135875940322875977e-01
-2.349366396665573120e-01 2.015049755573272705e-01 -4.869062900543212891e-01
-5.571356415748596191e-01 7.024778425693511963e-02 2.653861343860626221e-01
-3.738178908824920654e-01 7.714660465717315674e-02 -4.483754932880401611e-01
2.516570985317230225e-01 -5.413824915885925293e-01 -6.796520203351974487e-02
1.974494457244873047e-01 -1.271793991327285767e-01 -5.142450928688049316e-01
5.929229259490966797e-01 1.458797901868820190e-01 1.750891208648681641e-01
1.905169710516929626e-02 -1.752663776278495789e-02 -5.603962540626525879e-01
-2.346493750810623169e-01 5.058816075325012207e-01 -1.986110508441925049e-01
-3.396932780742645264e-01 -2.583530843257904053e-01 4.494406282901763916e-01
2.064299434423446655e-01 -1.567101776599884033e-01 -5.028980374336242676e-01
-1.992832422256469727e-01 -5.886207222938537598e-01 1.580103039741516113e-01
3.559840619564056396e-01 4.352750182151794434e-01 2.415855377912521362e-01
-3.517571389675140381e-01 -5.233847498893737793e-01 1.747494339942932129e-01
2.387660294771194458e-01 8.585366606712341309e-02 -5.191020369529724121e-01
2.239630520343780518e-01 8.921332657337188721e-02 5.192712545394897461e-01
-5.839481949806213379e-01 -2.278319001197814941e-01 1.971785426139831543e-01
-1.137402355670928955e-01 4.868292436003684998e-02 5.527307391166687012e-01
2.306944131851196289e-01 5.709158182144165039e-01 2.399578317999839783e-02
-2.590283453464508057e-01 4.530725479125976562e-01 -2.766509056091308594e-01
4.584551155567169189e-01 3.460015654563903809e-01 -2.672404348850250244e-01
4.083677828311920166e-01 2.009018883109092712e-02 4.325626790523529053e-01
2.397886663675308228e-01 4.743294715881347656e-01 2.724607884883880615e-01
-2.811605110764503479e-02 5.677539110183715820e-01 1.462748497724533081e-01
-1.994179189205169678e-01 3.861793577671051025e-01 3.646872639656066895e-01
-4.496498405933380127e-01 3.758389651775360107e-01 -1.299649775028228760e-01
-1.711093336343765259e-01 -1.544955968856811523e-01 5.405240058898925781e-01
5.603944063186645508e-01 -1.572614163160324097e-01 2.128535509109497070e-01
3.412192165851593018e-01 4.786004722118377686e-01 1.843852102756500244e-01
3.378063440322875977e-01 4.426299929618835449e-01 -2.838898897171020508e-01
4.593073427677154541e-01 2.139148414134979248e-01 3.402199745178222656e-01
-8.819377422332763672e-02 4.211687445640563965e-01 -3.997657597064971924e-01
4.866633117198944092e-01 3.577094376087188721e-01 1.800168603658676147e-01
-1.876818835735321045e-01 -2.513782978057861328e-01 -4.840693473815917969e-01
-1.975610554218292236e-01 4.409773647785186768e-01 -3.362764716148376465e-01
-5.215663313865661621e-01 -1.368386857211589813e-02 3.376980125904083252e-01
2.459780275821685791e-01 2.348067909479141235e-01 -4.835529923439025879e-01
-2.044783085584640503e-01 4.549902379512786865e-01 -3.143578171730041504e-01
-5.450626015663146973e-01 -2.947151660919189453e-01 2.220699936151504517e-01
3.712476491928100586e-01 -1.880282312631607056e-01 4.257597327232360840e-01
4.338832199573516846e-01 4.648120701313018799e-01 -6.196264550089836121e-02
3.374330699443817139e-01 -5.012737512588500977e-01 2.058215439319610596e-02
5.531210899353027344e-01 -2.540402710437774658e-01 1.089284047484397888e-01
3.065916597843170166e-01 -6.703584641218185425e-02 -4.838929474353790283e-01
3.329788744449615479e-01 -2.713693976402282715e-01 4.137422442436218262e-01
2.685096263885498047e-01 5.484630540013313293e-02 -5.098080635070800781e-01
4.428839981555938721e-01 6.951534748077392578e-02 -4.049584567546844482e-01
4.123093485832214355e-01 -4.294949769973754883e-01 -8.591058850288391113e-02
-2.320221215486526489e-01 -4.894530475139617920e-01 -2.844567298889160156e-01
-1.888646483421325684e-01 4.892271459102630615e-01 -2.731893360614776611e-01
1.943927556276321411e-01 -8.364559710025787354e-02 -5.248212218284606934e-01
-2.255288064479827881e-01 1.360075771808624268e-01 5.045159459114074707e-01
2.957181930541992188e-01 4.518541991710662842e-01 2.686512470245361328e-01
-6.182591319084167480e-01 -2.030999660491943359e-01 -8.377891778945922852e-02
4.654694199562072754e-01 9.831711649894714355e-02 -3.822839856147766113e-01
-5.240195393562316895e-01 -4.041116237640380859e-01 -2.666023746132850647e-02
1.132582277059555054e-01 -5.655117630958557129e-01 -1.611651778221130371e-01
-5.149350762367248535e-01 3.110876083374023438e-01 -8.596471697092056274e-02
-6.720665097236633301e-02 -3.404102921485900879e-01 -4.564374089241027832e-01
5.970521569252014160e-01 1.913135498762130737e-01 1.281618177890777588e-01
5.864109992980957031e-01 1.450732648372650146e-01 1.910545378923416138e-01
5.529183149337768555e-02 4.087468981742858887e-01 -4.244982004165649414e-01
-5.386995673179626465e-01 1.983977854251861572e-01 -2.159409523010253906e-01
-2.249090522527694702e-01 -5.820588469505310059e-01 -1.007398888468742371e-01
2.625270187854766846e-01 -2.925873994827270508e-01 4.446232914924621582e-01
-4.424374997615814209e-01 -1.629768162965774536e-01 -3.864884972572326660e-01
4.252939224243164062e-01 2.572067081928253174e-01 -3.682385385036468506e-01
2.443007081747055054e-01 -5.493118166923522949e-01 -4.166473075747489929e-02
-2.878466844558715820e-01 -2.661934122443199158e-02 5.105033516883850098e-01
-5.002793669700622559e-01 2.935137450695037842e-01 1.600802093744277954e-01
3.056514859199523926e-01 -4.002419710159301758e-01 -2.947717607021331787e-01
2.731432579457759857e-02 -4.039268195629119873e-01 4.478344619274139404e-01
5.977594256401062012e-01 2.150626629590988159e-01 -1.137948632240295410e-01
1.183308213949203491e-01 5.736030340194702148e-01 1.264266669750213623e-01
-5.967098474502563477e-01 -1.535548120737075806e-01 2.097946554422378540e-01
-5.745232701301574707e-01 1.111465990543365479e-01 2.100992053747177124e-01
-4.899383187294006348e-01 -4.175464063882827759e-02 3.751236200332641602e-01
-3.825094103813171387e-01 7.872626185417175293e-02 4.428476691246032715e-01
-1.900877654552459717e-01 -5.811688303947448730e-01 -1.328371912240982056e-01
-1.662248373031616211e-01 -2.279126495122909546e-01 5.244918465614318848e-01
-1.212270110845565796e-01 -5.455151200294494629e-01 2.916339039802551270e-01
-2.351485639810562134e-01 4.597852230072021484e-01 -2.861250042915344238e-01
5.432174801826477051e-01 2.808169126510620117e-01 1.709454059600830078e-01
1.736640185117721558e-01 -4.143813848495483398e-01 4.002144634723663330e-01
-1.645500399172306061e-02 -4.376890361309051514e-01 -3.815439939498901367e-01
-4.097235500812530518e-01 3.487916886806488037e-01 -2.580148279666900635e-01
4.798693954944610596e-01 -3.272751569747924805e-01 1.914681792259216309e-01
-1.679861396551132202e-01 5.631453394889831543e-01 2.664314396679401398e-02
-1.512262523174285889e-01 2.231770455837249756e-01 4.929786920547485352e-01
4.397437274456024170e-01 -4.095535576343536377e-01 9.922856092453002930e-02
5.788334608078002930e-01 -2.010964155197143555e-01 -8.888499438762664795e-02
2.098661959171295166e-01 -5.134725570678710938e-01 2.523588836193084717e-01
6.058112978935241699e-01 -8.233295381069183350e-02 1.450679898262023926e-01
-1.485942304134368896e-02 -1.250588595867156982e-01 -5.461223721504211426e-01
-2.440912276506423950e-01 5.150063037872314453e-01 1.217413917183876038e-01
-2.534885704517364502e-01 1.019195318222045898e-01 -5.064321160316467285e-01
-1.766084432601928711e-01 -3.471935093402862549e-01 -4.352138638496398926e-01
1.094516292214393616e-01 -1.617103517055511475e-01 5.441066026687622070e-01
-6.924048066139221191e-02 5.170599222183227539e-01 -2.863346338272094727e-01
-4.362682625651359558e-02 4.274332225322723389e-01 3.708034455776214600e-01
6.169123202562332153e-02 4.884158968925476074e-01 -3.427703380584716797e-01
3.005518615245819092e-01 4.894442856311798096e-01 2.053407132625579834e-01
1.414109915494918823e-01 -3.496093451976776123e-01 4.608186781406402588e-01
1.416678577661514282e-01 5.061261057853698730e-01 -3.059023022651672363e-01
-2.918465733528137207e-01 5.106295943260192871e-01 -5.351989343762397766e-02
-3.290443420410156250e-01 3.032249212265014648e-01 3.624390363693237305e-01
-5.954833701252937317e-02 -6.167342066764831543e-01 1.013122126460075378e-01
2.514972686767578125e-01 -5.410031080245971680e-01 1.202438622713088989e-01
-1.872882843017578125e-01 -5.088752508163452148e-01 3.268757164478302002e-01
1.768517941236495972e-01 -5.814298987388610840e-01 1.015508081763982773e-02
-4.159425497055053711e-01 4.072774052619934082e-01 1.065471470355987549e-01
-5.598595142364501953e-01 2.682117745280265808e-02 2.768765985965728760e-01
7.891792058944702148e-02 -9.508609771728515625e-02 5.591196417808532715e-01
-5.007702112197875977e-01 -2.133906334638595581e-01 3.370029926300048828e-01
-3.619298636913299561e-01 -5.400128960609436035e-01 -2.831270731985569000e-02
-2.371236681938171387e-02 5.376045703887939453e-01 -2.618315219879150391e-01
4.424374550580978394e-02 -3.835270702838897705e-01 4.602589607238769531e-01
-2.135176397860050201e-02 5.098061561584472656e-01 -3.092572391033172607e-01
3.662863671779632568e-01 3.946819007396697998e-01 2.835825681686401367e-01
1.622687466442584991e-02 5.105267167091369629e-01 -3.124573528766632080e-01
5.605454444885253906e-01 3.054982125759124756e-01 7.648716121912002563e-02
2.485930360853672028e-02 -5.268533229827880859e-01 3.203812539577484131e-01
-1.983404904603958130e-01 -3.245948553085327148e-01 -4.435593783855438232e-01
3.808703124523162842e-01 2.969531416893005371e-01 -3.819011747837066650e-01
8.283280581235885620e-02 4.943176209926605225e-01 2.947574555873870850e-01
-6.054998636245727539e-01 -2.414449453353881836e-01 1.157878935337066650e-01
-2.161835283041000366e-01 -3.291953802108764648e-01 -4.353468120098114014e-01
5.406373739242553711e-02 -4.675274193286895752e-01 -3.424784541130065918e-01
6.034306883811950684e-01 8.615885674953460693e-02 -1.810654997825622559e-01
-2.865479588508605957e-01 -1.928462684154510498e-01 -4.724799096584320068e-01
2.173900604248046875e-01 -4.961961805820465088e-01 2.766996026039123535e-01
2.650258541107177734e-01 -4.973333328962326050e-02 5.127983689308166504e-01
4.297821521759033203e-01 1.169735193252563477e-01 4.023080766201019287e-01
-2.917358651757240295e-03 -5.739486217498779297e-01 -1.873402297496795654e-01
2.447047978639602661e-01 8.943350613117218018e-02 5.120221972465515137e-01
6.147549152374267578e-01 1.875035315752029419e-01 4.931439831852912903e-02
5.339803695678710938e-01 -8.189985156059265137e-02 -2.866288423538208008e-01
4.573055803775787354e-01 -1.896327584981918335e-01 3.483972549438476562e-01
1.078610345721244812e-01 3.860208690166473389e-01 4.080085754394531250e-01
6.197181344032287598e-01 -1.072572618722915649e-01 -2.581404335796833038e-02
-5.040709376335144043e-01 -8.850093185901641846e-02 3.604677319526672363e-01
5.137144923210144043e-01 -3.296482861042022705e-01 6.057640910148620605e-02
4.684566855430603027e-01 2.731193006038665771e-01 -3.159039616584777832e-01
8.361145853996276855e-02 -8.070816099643707275e-02 5.597321391105651855e-01
-4.694410860538482666e-01 3.728749155998229980e-01 1.982486620545387268e-02
-6.371303200721740723e-01 2.998438850045204163e-02 5.774813517928123474e-02
3.731546700000762939e-01 -4.253659546375274658e-01 -1.815608143806457520e-01
-5.920853614807128906e-01 1.901528388261795044e-01 1.734592579305171967e-02
-3.721830248832702637e-01 -2.350061684846878052e-01 4.388466477394104004e-01
1.450725942850112915e-01 4.648503959178924561e-01 -3.581740856170654297e-01
5.307634472846984863e-01 1.582767665386199951e-01 -2.950762808322906494e-01
4.411019682884216309e-01 4.349246323108673096e-01 -1.567505896091461182e-01
-4.318952560424804688e-01 -1.846843510866165161e-01 4.118079245090484619e-01
1.892226189374923706e-01 -5.096970200538635254e-01 2.755443751811981201e-01
2.845529615879058838e-01 -2.064084857702255249e-01 4.723831713199615479e-01
1.396225839853286743e-01 3.534295558929443359e-01 4.278496205806732178e-01
7.334785908460617065e-02 2.502380311489105225e-01 -5.160148739814758301e-01
4.575599133968353271e-01 2.727989852428436279e-01 3.061024546623229980e-01
1.487779021263122559e-01 -2.501566708087921143e-01 5.088405013084411621e-01
6.502396613359451294e-02 5.614404678344726562e-01 1.732227653264999390e-01
-5.403085350990295410e-01 2.818196713924407959e-01 -4.927940294146537781e-02
3.661417961120605469e-01 -3.158603310585021973e-01 -3.281399905681610107e-01
5.133587121963500977e-01 3.668182194232940674e-01 9.933101385831832886e-02
-4.946025609970092773e-01 -1.594199538230895996e-01 -3.385288417339324951e-01
-3.876706659793853760e-01 -5.261254906654357910e-01 -1.576482504606246948e-02
5.163667201995849609e-01 7.393422722816467285e-02 -3.306531608104705811e-01
-6.032813191413879395e-01 -1.436970382928848267e-01 1.980629265308380127e-01
4.673696309328079224e-02 -3.006217181682586670e-01 5.073439478874206543e-01
-3.389383256435394287e-01 4.655012190341949463e-01 -1.429160535335540771e-01
-2.827335000038146973e-01 4.700081646442413330e-01 -2.224704176187515259e-01
-4.894993007183074951e-01 2.601994574069976807e-01 2.285782843828201294e-01
1.930922567844390869e-01 3.106255531311035156e-01 -4.669414162635803223e-01
-4.649087190628051758e-01 2.406599968671798706e-01 2.840388119220733643e-01
7.597336918115615845e-02 1.087571308016777039e-02 5.609530210494995117e-01
2.541006542742252350e-02 2.038336396217346191e-01 -5.342746376991271973e-01
-3.577135503292083740e-01 6.132951006293296814e-02 -4.610265493392944336e-01
1.239976957440376282e-01 3.620537817478179932e-01 4.243970215320587158e-01
4.424525499343872070e-01 -3.172128796577453613e-01 -2.414769530296325684e-01
-4.404000043869018555e-01 -4.191302955150604248e-01 -2.027817070484161377e-01
-5.452132597565650940e-02 -3.369146585464477539e-01 4.936421811580657959e-01
2.568034231662750244e-01 -1.351142376661300659e-01 -4.905158877372741699e-01
-5.941439867019653320e-01 -2.962275147438049316e-01 2.283426001667976379e-03
-2.596515603363513947e-02 -3.126815259456634521e-01 5.063352584838867188e-01
6.362000703811645508e-01 2.178562432527542114e-02 -4.768285527825355530e-02
-1.934773325920104980e-01 5.010337829589843750e-01 2.112216353416442871e-01
-6.479682773351669312e-02 -5.896074175834655762e-01 -1.520117074251174927e-01
6.133845448493957520e-01 -1.032476574182510376e-01 9.463886916637420654e-02
-3.164659738540649414e-01 -4.236146509647369385e-01 -3.142260611057281494e-01
1.942942291498184204e-01 -7.136062532663345337e-02 5.366273522377014160e-01
2.392272502183914185e-01 -1.529310271143913269e-02 -5.192620158195495605e-01
-1.364510357379913330e-01 4.687664806842803955e-01 -3.318009376525878906e-01
5.090820789337158203e-01 3.903273642063140869e-01 3.030657581984996796e-02
-4.799148142337799072e-01 -4.032279253005981445e-01 -1.646724790334701538e-01
-4.199425280094146729e-01 -1.662411987781524658e-01 4.254113137722015381e-01
7.877562195062637329e-02 -4.651196599006652832e-01 -3.395854830741882324e-01
-2.979286611080169678e-01 -1.782414615154266357e-01 -4.720517992973327637e-01
6.281639933586120605e-01 1.386482715606689453e-01 2.965491265058517456e-02
-1.393260508775711060e-01 3.014174997806549072e-01 4.531099200248718262e-01
-6.787592172622680664e-02 5.882440805435180664e-01 2.002361975610256195e-02
4.104493558406829834e-01 3.345985114574432373e-01 3.038436770439147949e-01
-1.974418386816978455e-02 -6.515938788652420044e-02 5.668680071830749512e-01
-6.018311381340026855e-01 8.653853833675384521e-02 -1.597515940666198730e-01
-3.999052643775939941e-01 3.140580356121063232e-01 2.893965244293212891e-01
3.605838716030120850e-01 -3.506799787282943726e-02 -4.592088758945465088e-01
4.651244580745697021e-01 -2.711856663227081299e-01 -2.590106427669525146e-01
-5.791303515434265137e-01 2.076122164726257324e-01 -7.446072995662689209e-02
-5.694159865379333496e-01 -2.173405140638351440e-01 -2.075916826725006104e-01
-4.245069026947021484e-01 -1.433282494544982910e-01 -4.062113761901855469e-01
-4.013055562973022461e-01 -1.610215902328491211e-01 4.398950338363647461e-01
-5.498894453048706055e-01 1.128400564193725586e-01 -2.566451132297515869e-01
-1.094638928771018982e-02 5.915213823318481445e-01 5.381944775581359863e-02
4.797341227531433105e-01 -7.134699821472167969e-02 -3.564318716526031494e-01
3.974461928009986877e-02 -6.060611605644226074e-01 -6.850571930408477783e-02
4.977742433547973633e-01 3.524925410747528076e-01 -1.959068030118942261e-01
4.545241594314575195e-01 2.479281574487686157e-01 3.258382678031921387e-01
-2.806435823440551758e-01 -5.809479355812072754e-01 4.693662747740745544e-02
-2.587644755840301514e-01 2.927229404449462891e-01 -4.321789145469665527e-01
-6.135138273239135742e-01 -4.562265053391456604e-02 -1.727971285581588745e-01
-5.207772850990295410e-01 -3.894059956073760986e-01 1.373889744281768799e-01
4.830024838447570801e-01 -2.209248095750808716e-01 -2.783245146274566650e-01
4.421148002147674561e-01 -3.800089955329895020e-01 1.782232373952865601e-01
2.393236756324768066e-01 5.626814961433410645e-01 -1.098776459693908691e-01
1.334535181522369385e-01 -5.953574776649475098e-01 1.679798960685729980e-02
1.120620816946029663e-01 4.911675155162811279e-01 2.947430312633514404e-01
4.824024736881256104e-01 -1.240080147981643677e-01 3.476755917072296143e-01
-4.088461697101593018e-01 -4.761863648891448975e-01 -1.478140503168106079e-01
5.386787652969360352e-01 -2.816928029060363770e-01 -7.743445038795471191e-02
-3.624156415462493896e-01 4.145926237106323242e-01 1.945666372776031494e-01
1.797773689031600952e-01 3.082304596900939941e-01 -4.718632400035858154e-01
4.918668270111083984e-01 -7.795310020446777344e-02 -3.413930237293243408e-01
-3.399471640586853027e-01 -5.186150074005126953e-01 2.034756243228912354e-01
1.364923268556594849e-01 -1.759635843336582184e-02 -5.473197102546691895e-01
5.963376164436340332e-01 1.771239638328552246e-01 -1.584409326314926147e-01
2.749837934970855713e-01 -3.191380798816680908e-01 -3.911534547805786133e-01
-3.925168514251708984e-02 -3.101608753204345703e-01 -4.755767881870269775e-01
-6.042158603668212891e-01 -2.396700084209442139e-01 -9.422420710325241089e-02
8.232542872428894043e-02 5.759378671646118164e-01 1.291372776031494141e-01
4.356339573860168457e-01 -2.950564920902252197e-01 3.017965555191040039e-01
-2.130081690847873688e-02 -6.208801269531250000e-01 3.634242340922355652e-02
3.759844005107879639e-01 3.513047099113464355e-01 -3.474082946777343750e-01
2.915394306182861328e-01 4.155675768852233887e-01 -3.487267494201660156e-01
-1.595210842788219452e-02 1.330872774124145508e-01 5.442348718643188477e-01
1.412360519170761108e-01 -1.492811739444732666e-01 5.400127172470092773e-01
6.203059554100036621e-01 4.161572828888893127e-02 -1.350883245468139648e-01
-2.422403544187545776e-01 -5.939493179321289062e-01 4.835658520460128784e-02
1.540486365556716919e-01 3.897472918033599854e-01 3.959445655345916748e-01
-6.044139266014099121e-01 1.084233522415161133e-01 -1.327478736639022827e-01
4.011352956295013428e-01 2.287358790636062622e-01 3.833928704261779785e-01
2.922853231430053711e-01 -3.459384143352508545e-01 -3.591082096099853516e-01
-5.177834033966064453e-01 1.497143693268299103e-02 -3.302821218967437744e-01
-2.483466081321239471e-02 5.465294122695922852e-01 2.011820226907730103e-01
2.638646364212036133e-01 1.293827146291732788e-01 -5.043746232986450195e-01
2.664798498153686523e-01 -2.952525913715362549e-01 -4.124682843685150146e-01
1.370055675506591797e-01 -3.652611076831817627e-01 4.519264400005340576e-01
9.185884147882461548e-02 -6.057873964309692383e-01 3.727976605296134949e-02
4.007552564144134521e-01 -4.424909949302673340e-01 -7.440872490406036377e-02
-4.522441923618316650e-01 2.810723781585693359e-01 -2.775975763797760010e-01
-5.452793836593627930e-01 -1.040215194225311279e-01 3.092069029808044434e-01
-6.072254776954650879e-01 -1.669906079769134521e-01 -1.542661935091018677e-01
-5.071455240249633789e-01 -4.268832802772521973e-01 4.538529738783836365e-02
-3.422207236289978027e-01 4.581828117370605469e-01 1.261211782693862915e-01
3.890025317668914795e-01 4.998259246349334717e-01 -1.054430101066827774e-02
2.814854383468627930e-01 -7.506035268306732178e-02 -4.942542612552642822e-01
3.193331137299537659e-02 5.855920314788818359e-01 9.664928913116455078e-02
4.200841188430786133e-01 -4.250012338161468506e-01 1.148142516613006592e-01
-1.056647971272468567e-01 2.091889232397079468e-01 5.089671611785888672e-01
-3.619931042194366455e-01 2.526507377624511719e-01 -3.908649682998657227e-01
-6.402937173843383789e-01 -1.302720904350280762e-01 5.657161772251129150e-02
4.553276300430297852e-01 4.479949772357940674e-01 -4.551918059587478638e-02
2.955703996121883392e-03 5.925872325897216797e-01 5.351211130619049072e-02
-6.147338747978210449e-01 -1.287709772586822510e-01 1.732233613729476929e-01
-5.064237117767333984e-01 -9.952181577682495117e-02 -3.403060436248779297e-01
-1.852674484252929688e-01 2.875122055411338806e-02 5.405626296997070312e-01
4.439905881881713867e-01 -2.967522740364074707e-01 -2.619940042495727539e-01
-1.919148415327072144e-01 1.957980543375015259e-02 -5.355292558670043945e-01
5.998685359954833984e-01 -9.762831032276153564e-02 -1.448197811841964722e-01
4.649583399295806885e-01 -2.265271097421646118e-01 -2.972420752048492432e-01
-5.795592069625854492e-01 4.633084684610366821e-02 2.359234243631362915e-01
-4.113692939281463623e-01 -1.430709809064865112e-01 4.360309243202209473e-01
-5.490074157714843750e-01 1.836825460195541382e-01 2.012151479721069336e-01
9.133443981409072876e-02 -4.910104870796203613e-01 3.511140048503875732e-01
2.087882757186889648e-01 -5.513590574264526367e-01 -1.073875427246093750e-01
-6.172282099723815918e-01 -1.394652724266052246e-01 1.617864072322845459e-01
5.157687664031982422e-01 3.391406536102294922e-01 -1.776584833860397339e-01
-2.621400058269500732e-01 5.084007978439331055e-01 -1.522163897752761841e-01
3.869986832141876221e-01 -3.292107284069061279e-01 -2.956483662128448486e-01
2.941460609436035156e-01 -4.884411394596099854e-01 2.104835808277130127e-01
-3.026262819766998291e-01 4.861633777618408203e-01 1.161843538284301758e-01
-2.603569924831390381e-01 -1.104591637849807739e-01 5.198591947555541992e-01
-4.942248761653900146e-01 1.940434873104095459e-01 2.838517427444458008e-01
1.468984484672546387e-01 -5.907753109931945801e-01 -2.963938750326633453e-04
-4.649150967597961426e-01 3.416646718978881836e-01 1.505754292011260986e-01
3.984225392341613770e-01 -4.535556435585021973e-01 -2.021200023591518402e-02
-7.919194549322128296e-02 -6.141039729118347168e-01 -5.688012391328811646e-02
2.566006779670715332e-01 5.640046596527099609e-01 6.045064888894557953e-03
3.027300238609313965e-01 8.803684264421463013e-03 -4.944948554039001465e-01
-5.820108056068420410e-01 -2.722617387771606445e-01 1.583469510078430176e-01
1.707203090190887451e-01 3.673164844512939453e-01 4.100860953330993652e-01
-1.470699757337570190e-01 -3.706129491329193115e-01 4.637380540370941162e-01
-2.038513571023941040e-01 -4.514974355697631836e-01 3.858911097049713135e-01
-1.995231769979000092e-02 4.445351958274841309e-01 -3.893935382366180420e-01
2.679324746131896973e-01 -5.382014513015747070e-01 8.710081875324249268e-02
-5.328673720359802246e-01 -3.513794243335723877e-01 1.782008111476898193e-01
-3.157214820384979248e-01 4.640732109546661377e-01 1.571294218301773071e-01
4.292592406272888184e-01 1.771713495254516602e-01 3.838322758674621582e-01
-4.094841480255126953e-01 -5.102621316909790039e-01 7.959211617708206177e-02
1.889749169349670410e-01 -5.104478597640991211e-01 -2.266943454742431641e-01
-5.078981518745422363e-01 -1.688724905252456665e-01 3.435552120208740234e-01
2.758888602256774902e-01 5.402841567993164062e-01 -1.494724154472351074e-01
6.339210867881774902e-01 4.253721982240676880e-02 6.626433134078979492e-02
-6.565688550472259521e-02 2.796788811683654785e-01 4.806354939937591553e-01
-1.197267323732376099e-01 -3.264696896076202393e-01 4.933439791202545166e-01
-5.947386622428894043e-01 9.915560483932495117e-02 -1.706233620643615723e-01
2.111914604902267456e-01 -3.257898986339569092e-01 4.498395621776580811e-01
1.240434125065803528e-01 4.741601347923278809e-01 3.149430155754089355e-01
-5.677132010459899902e-01 3.189032897353172302e-02 -2.566317617893218994e-01
1.667112261056900024e-01 -4.892690479755401611e-01 -2.748101949691772461e-01
-5.095818042755126953e-01 -1.964885741472244263e-01 3.330709040164947510e-01
2.018990069627761841e-01 -3.747122585773468018e-01 4.204883873462677002e-01
1.653380244970321655e-01 -3.810241222381591797e-01 -3.942946791648864746e-01
2.935068011283874512e-01 1.854202598333358765e-01 -4.796658456325531006e-01
-3.520237803459167480e-01 2.257781624794006348e-01 4.007503390312194824e-01
-1.005419939756393433e-01 3.465580642223358154e-01 -4.557711184024810791e-01
4.159240126609802246e-01 4.691570401191711426e-01 7.723578065633773804e-02
-3.411194682121276855e-01 3.506150841712951660e-01 3.081025183200836182e-01
2.764352858066558838e-01 2.027348726987838745e-01 -4.821977615356445312e-01
2.354664951562881470e-01 1.990264952182769775e-01 -4.990836083889007568e-01
5.828793644905090332e-01 6.123965606093406677e-02 2.259241491556167603e-01
-6.669128686189651489e-02 -4.306341111660003662e-01 -3.877130150794982910e-01
1.451928019523620605e-01 1.749111264944076538e-01 5.183215141296386719e-01
3.683181703090667725e-01 -1.409975588321685791e-01 4.429627358913421631e-01
4.050021171569824219e-01 4.888761341571807861e-01 -8.843231946229934692e-03
4.324279129505157471e-01 4.115290008485317230e-03 4.142807722091674805e-01
3.837780952453613281e-01 4.511626064777374268e-01 -2.212803065776824951e-01
-4.854857623577117920e-01 3.339731395244598389e-01 -1.337292045354843140e-01
3.060584962368011475e-01 -2.212240695953369141e-01 -4.331468641757965088e-01
-1.942430734634399414e-01 -6.020591259002685547e-01 -3.966964408755302429e-02
-5.429070591926574707e-01 2.405080050230026245e-01 -1.531241238117218018e-01
1.588744223117828369e-01 5.827199816703796387e-01 6.225232407450675964e-02
-9.140946716070175171e-02 -1.634757220745086670e-02 5.620799064636230469e-01
5.482922196388244629e-01 1.578017324209213257e-01 2.565846741199493408e-01
4.717346429824829102e-01 -3.824924528598785400e-01 5.735015124082565308e-02
5.798532366752624512e-01 -5.287940427660942078e-02 2.245781719684600830e-01
9.941779822111129761e-02 1.913179606199264526e-01 5.202676057815551758e-01
-1.139356866478919983e-01 4.973547160625457764e-01 2.636341154575347900e-01
-5.823700428009033203e-01 2.442793548107147217e-02 2.386632859706878662e-01
8.077265322208404541e-02 5.794470906257629395e-01 -1.633341908454895020e-01
-4.394213110208511353e-02 3.528567254543304443e-01 4.358921945095062256e-01
4.981469511985778809e-01 -4.942785575985908508e-02 3.475882411003112793e-01
-4.134216606616973877e-01 -7.673181593418121338e-02 4.407365620136260986e-01
-3.327765762805938721e-01 2.622464597225189209e-01 -4.063321352005004883e-01
-2.161816656589508057e-01 -5.269310474395751953e-01 2.883919775485992432e-01
5.367774367332458496e-01 -1.986535340547561646e-01 2.286988198757171631e-01
5.472125858068466187e-02 1.864604465663433075e-02 5.624227523803710938e-01
4.651526510715484619e-01 3.304469883441925049e-01 -2.741024494171142578e-01
-2.864306271076202393e-01 5.001392960548400879e-01 9.844031184911727905e-02
1.984973996877670288e-01 1.679921448230743408e-01 5.075696110725402832e-01
3.345230817794799805e-01 3.878383934497833252e-01 3.160219490528106689e-01
-3.509896993637084961e-02 -6.094184517860412598e-01 -8.263766020536422729e-02
2.779200375080108643e-01 8.318252861499786377e-02 -5.043115019798278809e-01
2.961073815822601318e-01 4.197586774826049805e-01 3.079940080642700195e-01
-3.594555854797363281e-01 4.660999476909637451e-01 -7.327331602573394775e-02
-3.226367831230163574e-01 4.064842164516448975e-01 2.557807862758636475e-01
4.791451096534729004e-01 4.063289761543273926e-01 -1.329913586378097534e-01
-2.810402512550354004e-01 5.171946287155151367e-01 3.461253363639116287e-03
3.186008334159851074e-01 -5.134313106536865234e-01 1.894976943731307983e-02
-6.167232394218444824e-01 -7.568354904651641846e-02 -1.622550338506698608e-01
-1.516910344362258911e-01 -6.525342166423797607e-02 5.531132817268371582e-01
-2.036294490098953247e-01 -8.975988626480102539e-02 -5.258197784423828125e-01
1.727002263069152832e-01 2.669176161289215088e-01 4.737156331539154053e-01
-5.473802685737609863e-01 -3.499214053153991699e-01 -1.011616364121437073e-01
-4.591637849807739258e-01 -4.739859402179718018e-01 5.263205245137214661e-02
5.556282997131347656e-01 1.917683333158493042e-01 -2.414240390062332153e-01
3.258423507213592529e-01 -4.039787948131561279e-01 3.096284568309783936e-01
-5.657965540885925293e-01 2.318313121795654297e-01 -8.091915398836135864e-02
-5.367748141288757324e-01 2.775929570198059082e-01 -9.242899715900421143e-02
-2.147987037897109985e-01 1.721165031194686890e-01 -5.042487382888793945e-01
3.247274160385131836e-01 4.498104155063629150e-01 2.490216195583343506e-01
2.165953516960144043e-01 4.297997951507568359e-01 -3.719246387481689453e-01
3.204620480537414551e-01 1.997542083263397217e-01 -4.623584151268005371e-01
-2.610724866390228271e-01 -2.525920569896697998e-01 -4.598673284053802490e-01
-3.957294523715972900e-01 -5.199041962623596191e-01 -2.506175078451633453e-02
-2.575255930423736572e-01 -4.900576770305633545e-01 3.194231390953063965e-01
-6.331717967987060547e-02 5.875689983367919922e-01 3.477765992283821106e-02
-3.265055119991302490e-01 5.174651369452476501e-02 -4.799394011497497559e-01
-2.342686355113983154e-01 -2.133751362562179565e-01 5.102511644363403320e-01
-5.337700843811035156e-01 -3.629538118839263916e-01 -1.157690286636352539e-01
-3.057734966278076172e-01 4.748432934284210205e-01 -1.791423112154006958e-01
1.718216538429260254e-01 4.450645148754119873e-01 3.371886014938354492e-01
5.290982723236083984e-01 1.452057361602783203e-01 2.900838851928710938e-01
-8.490508422255516052e-03 5.833669304847717285e-01 -1.434011906385421753e-01
6.554306298494338989e-02 -3.792695999145507812e-01 4.597514867782592773e-01
6.246258020401000977e-01 1.367699801921844482e-01 -7.617690414190292358e-02
-3.605062067508697510e-01 -5.440509915351867676e-01 4.330518469214439392e-02
4.291811585426330566e-01 -1.937310993671417236e-01 -3.564542829990386963e-01
-5.275757908821105957e-01 -3.743277192115783691e-01 1.506938636302947998e-01
2.355646789073944092e-01 -9.407244622707366943e-02 -5.091323852539062500e-01
2.960805296897888184e-01 5.405799746513366699e-01 -1.133728548884391785e-01
4.527708292007446289e-01 3.168666660785675049e-01 2.756163775920867920e-01
-3.134992420673370361e-01 -5.314903855323791504e-01 -1.527636796236038208e-01
3.509190678596496582e-01 1.477424241602420807e-02 -4.694992005825042725e-01
-1.580670624971389771e-01 2.807766497135162354e-01 -4.791758656501770020e-01
4.079946577548980713e-01 4.726076722145080566e-01 -1.257328391075134277e-01
5.943828225135803223e-01 -1.878337115049362183e-01 -5.361328832805156708e-03
-6.386081576347351074e-01 -4.572177305817604065e-02 9.640426188707351685e-02
-5.073556900024414062e-01 -4.212505817413330078e-01 8.557834476232528687e-02
-2.712916433811187744e-01 -4.338902533054351807e-01 3.739793896675109863e-01
-3.617933690547943115e-01 -2.588120996952056885e-01 4.362951815128326416e-01
5.721791982650756836e-01 6.364631652832031250e-02 -2.502824068069458008e-01
-5.805729627609252930e-01 -2.116167247295379639e-01 2.160195261240005493e-01
1.636187434196472168e-01 8.695696294307708740e-02 -5.405011773109436035e-01
-3.248768150806427002e-01 -4.522033333778381348e-01 -2.760531604290008545e-01
-3.556660115718841553e-01 2.792344093322753906e-01 -3.785819411277770996e-01
-3.122925758361816406e-01 -3.565237522125244141e-01 -3.756820857524871826e-01
5.598016381263732910e-01 -6.348170340061187744e-02 2.592339217662811279e-01
-4.220187067985534668e-01 -4.042722880840301514e-01 2.881251573562622070e-01
-1.228929087519645691e-01 2.636969983577728271e-01 4.793537855148315430e-01
5.415114164352416992e-01 3.389005064964294434e-01 6.829273700714111328e-02
-2.954288944602012634e-02 -3.230778276920318604e-01 -4.682406783103942871e-01
1.675696223974227905e-01 1.568438261747360229e-01 -5.290586948394775391e-01
2.629434168338775635e-01 -2.185205370187759399e-01 4.786201417446136475e-01
3.295172452926635742e-01 -5.943298712372779846e-02 4.809954464435577393e-01
5.971317291259765625e-01 -1.368126869201660156e-01 -1.151579618453979492e-01
1.505457758903503418e-01 1.074847579002380371e-01 -5.410626530647277832e-01
-5.570349097251892090e-01 -4.210845381021499634e-02 2.936126887798309326e-01
7.466570287942886353e-02 5.641097426414489746e-01 -2.099045217037200928e-01
-5.525240302085876465e-01 -1.976108253002166748e-01 -2.486513853073120117e-01
5.844937562942504883e-01 -1.824840903282165527e-01 1.155825778841972351e-01
-4.973718896508216858e-02 1.716167479753494263e-01 5.305365920066833496e-01
-5.517862439155578613e-01 6.455320119857788086e-02 2.763388454914093018e-01
2.054009139537811279e-01 1.428839415311813354e-01 5.129552483558654785e-01
4.715858995914459229e-01 7.052578032016754150e-02 3.745070993900299072e-01
-1.613780111074447632e-01 -1.241620257496833801e-02 5.501576662063598633e-01
2.350818924605846405e-02 -3.807490170001983643e-01 -4.270791113376617432e-01
-6.227541565895080566e-01 1.082855761051177979e-01 -1.851282780990004539e-03
2.657825946807861328e-01 5.155924558639526367e-01 1.836312115192413330e-01
2.782300710678100586e-01 3.809681236743927002e-01 -3.873291611671447754e-01
2.586433663964271545e-02 -3.067567646503448486e-01 5.066418051719665527e-01
3.659880757331848145e-01 4.900529682636260986e-01 1.220852732658386230e-01
5.841886401176452637e-01 -1.822681427001953125e-01 -1.006688773632049561e-01
4.110387265682220459e-01 2.374783754348754883e-01 3.710924088954925537e-01
-6.914608925580978394e-02 -5.836191773414611816e-01 2.234466075897216797e-01
-6.305174231529235840e-01 -1.651683449745178223e-01 9.026265144348144531e-02
2.976004499942064285e-03 -6.186175942420959473e-01 5.575561150908470154e-02
-5.973035097122192383e-01 1.414517313241958618e-01 -1.201138868927955627e-01
-7.707759737968444824e-02 1.798397600650787354e-01 5.247729420661926270e-01
3.320700228214263916e-01 -4.903201162815093994e-01 -9.035582840442657471e-02
-4.833422601222991943e-01 -3.864532113075256348e-01 -1.849204748868942261e-01
-6.410367321223020554e-03 1.751735210418701172e-01 5.316252112388610840e-01
-4.008415341377258301e-01 -4.751124978065490723e-01 -1.626195907592773438e-01
5.736258253455162048e-02 -5.756822228431701660e-01 2.197525799274444580e-01
3.952651321887969971e-01 2.938493788242340088e-01 -3.726461827754974365e-01
1.223910823464393616e-01 -7.342672348022460938e-02 -5.436890721321105957e-01
-5.560951232910156250e-01 2.532168626785278320e-01 5.249060690402984619e-02
2.412776947021484375e-01 -1.066814213991165161e-01 -5.041804313659667969e-01
2.958381474018096924e-01 3.237066566944122314e-01 3.935541212558746338e-01
7.142826169729232788e-02 -4.994095861911773682e-01 -2.990411818027496338e-01
1.151777729392051697e-01 5.153319239616394043e-01 2.576728463172912598e-01
4.728998839855194092e-01 -2.882199585437774658e-01 2.559610605239868164e-01
-1.299112141132354736e-01 -4.952445626258850098e-01 3.595689833164215088e-01
-3.907186090946197510e-01 -4.121499061584472656e-01 -2.684308886528015137e-01
1.361208856105804443e-01 5.582281947135925293e-01 1.646673530340194702e-01
-1.736675649881362915e-01 2.602253556251525879e-01 4.678354263305664062e-01
5.155984759330749512e-01 -2.871901690959930420e-01 1.711360067129135132e-01
-2.357266247272491455e-01 -5.065441727638244629e-01 3.089252114295959473e-01
-3.316577374935150146e-01 4.020070731639862061e-01 -2.808277904987335205e-01
-2.752709984779357910e-01 -5.711489319801330566e-01 1.347819864749908447e-01
1.599018573760986328e-01 -1.376399397850036621e-01 5.376409292221069336e-01
5.844142436981201172e-01 -2.837039530277252197e-03 2.247451543807983398e-01
3.521961569786071777e-01 -1.765560358762741089e-01 4.431017041206359863e-01
-2.429603040218353271e-01 5.858001485466957092e-02 -5.165650248527526855e-01
-6.333158910274505615e-02 -9.289288520812988281e-02 -5.502744913101196289e-01
5.127076506614685059e-01 -2.862305343151092529e-01 -1.540523618459701538e-01
5.744754076004028320e-01 1.671279966831207275e-01 2.045327872037887573e-01
-3.010364770889282227e-01 -3.881320953369140625e-01 3.971811234951019287e-01
1.690325438976287842e-01 -4.852481558918952942e-02 -5.371163487434387207e-01
1.677357256412506104e-01 -2.401465326547622681e-01 5.072236657142639160e-01
5.810661315917968750e-01 -7.014687359333038330e-02 2.163669615983963013e-01
3.689979910850524902e-01 2.684655189514160156e-01 -4.060912430286407471e-01
9.701472520828247070e-02 4.793483316898345947e-01 -3.505404889583587646e-01
4.916743338108062744e-01 3.145337104797363281e-01 -2.523720264434814453e-01
-9.043656289577484131e-02 -2.202391475439071655e-01 -5.140503644943237305e-01
-2.970604598522186279e-01 4.688441753387451172e-01 1.727660894393920898e-01
-3.410920500755310059e-02 -6.213822364807128906e-01 3.707565367221832275e-02
5.089757591485977173e-02 -4.801942408084869385e-01 -3.283993005752563477e-01
1.891793161630630493e-01 -5.363686084747314453e-01 2.231917381286621094e-01
4.566643536090850830e-01 -3.427265882492065430e-01 2.146366387605667114e-01
4.480390846729278564e-01 -1.881605684757232666e-01 3.589592874050140381e-01
4.844156801700592041e-01 2.529790997505187988e-02 3.660624921321868896e-01
-2.325983718037605286e-03 5.720418095588684082e-01 -1.850259602069854736e-01
-1.362886577844619751e-01 -5.927207469940185547e-01 1.836160719394683838e-01
8.303727954626083374e-02 -5.938281416893005371e-01 1.470882743597030640e-01
-1.091741919517517090e-01 -3.896829187870025635e-01 4.573072493076324463e-01
-5.486623048782348633e-01 -2.097363024950027466e-01 -2.481652200222015381e-01
-4.105799198150634766e-01 -3.242792189121246338e-01 -3.317403197288513184e-01
-3.270212411880493164e-01 1.960261166095733643e-01 4.330821931362152100e-01
-4.445174336433410645e-01 -4.811168015003204346e-01 -4.431947693228721619e-02
-4.087548702955245972e-02 -3.389114439487457275e-01 4.928840994834899902e-01
-2.208569198846817017e-01 5.395131111145019531e-01 -9.967079013586044312e-02
4.656669497489929199e-02 -4.505444765090942383e-01 -3.621967434883117676e-01
2.027103751897811890e-01 5.593917965888977051e-01 -1.667767763137817383e-01
-1.823602616786956787e-01 -5.256720781326293945e-01 -2.533697485923767090e-01
4.238943457603454590e-01 2.293993085622787476e-01 3.647165596485137939e-01
3.019888103008270264e-01 -4.768360555171966553e-01 -1.804786026477813721e-01
5.479477643966674805e-01 -2.105730921030044556e-01 -1.738460361957550049e-01
1.776680946350097656e-01 -1.003805398941040039e-01 5.385279655456542969e-01
9.418699145317077637e-02 -5.553528666496276855e-01 2.485611289739608765e-01
-5.585088133811950684e-01 9.690715372562408447e-02 2.498103529214859009e-01
5.268237590789794922e-01 3.716433048248291016e-01 -9.811594150960445404e-03
2.220187038183212280e-01 -2.408544868230819702e-01 4.878841042518615723e-01
-2.329048812389373779e-01 -3.959169685840606689e-01 -3.817296624183654785e-01
-4.153654277324676514e-01 1.238880157470703125e-01 4.037944972515106201e-01
1.664974689483642578e-01 -5.245491862297058105e-01 -2.162550091743469238e-01
7.895783334970474243e-02 5.988389253616333008e-01 -1.882051303982734680e-02
-6.101419925689697266e-01 -6.604068912565708160e-03 -1.776499450206756592e-01
-2.883282601833343506e-01 4.793347716331481934e-01 -1.943650692701339722e-01
1.449708640575408936e-01 3.111425042152404785e-01 4.551478326320648193e-01
5.482426881790161133e-01 3.290229737758636475e-01 -9.452421218156814575e-02
1.842012703418731689e-01 4.774857684969902039e-02 5.372292399406433105e-01
-5.743141174316406250e-01 2.273734807968139648e-01 3.883595112711191177e-03
-5.614713430404663086e-01 2.502003908157348633e-01 -2.325373888015747070e-02
-1.754211187362670898e-01 -2.759578526020050049e-01 5.057358741760253906e-01
6.265522837638854980e-01 -5.066152289509773254e-02 7.584015280008316040e-02
5.861462950706481934e-01 2.380317598581314087e-01 -1.271723061800003052e-01
-1.329937279224395752e-01 -5.479470491409301758e-01 -2.316513359546661377e-01
1.455142050981521606e-01 5.904625058174133301e-01 1.834849268198013306e-02
4.071640670299530029e-01 -3.104636669158935547e-01 3.215087652206420898e-01
-3.682784736156463623e-01 2.258515954017639160e-01 -4.012814462184906006e-01
-3.958619534969329834e-01 4.422459900379180908e-01 -2.581820124760270119e-03
-4.647537171840667725e-01 2.755734622478485107e-01 2.495576441287994385e-01
-1.238436438143253326e-02 -6.036756634712219238e-01 1.599654406309127808e-01
-4.709099233150482178e-01 2.952538430690765381e-01 -2.335193306207656860e-01
-1.873655021190643311e-01 1.063039451837539673e-01 -5.282953381538391113e-01
-5.469627380371093750e-01 1.745025664567947388e-01 -2.210333645343780518e-01
5.142619367688894272e-03 -5.066176056861877441e-01 3.508822917938232422e-01
3.377167880535125732e-01 3.627615049481391907e-03 -4.763388633728027344e-01
-1.743693202733993530e-01 4.974490106105804443e-01 -2.688807249069213867e-01
1.864219754934310913e-01 4.094091355800628662e-01 -4.013017117977142334e-01
-4.640856981277465820e-01 2.745739817619323730e-01 -2.675094008445739746e-01
-1.565398424863815308e-01 2.459645420312881470e-01 4.804299771785736084e-01
-1.214730739593505859e-02 -4.978214204311370850e-01 3.633530437946319580e-01
-5.893967747688293457e-01 -1.755172908306121826e-01 2.166675776243209839e-01
1.464845389127731323e-01 5.912504196166992188e-01 4.882251843810081482e-03
-3.895008563995361328e-01 3.783299624919891357e-01 -2.444709539413452148e-01
