-5.951626300811767578e-01 1.319279670715332031e-01 1.368703097105026245e-01
2.173624932765960693e-01 -1.511178165674209595e-01 -5.528422817587852478e-02
3.464232385158538818e-01 5.906698480248451233e-02 2.882345318794250488e-01
3.837022483348846436e-01 -1.513206958770751953e-01 -9.568299353122711182e-02
1.431587636470794678e-01 2.902759984135627747e-02 -4.600629508495330811e-01
4.990060031414031982e-01 -9.125187247991561890e-02 3.349451720714569092e-01
3.188340067863464355e-01 5.141860619187355042e-02 -3.372686803340911865e-01
-1.298554241657257080e-01 -1.197127923369407654e-01 -1.206174939870834351e-01
-5.394811034202575684e-01 -4.724344238638877869e-02 -5.220285430550575256e-02
3.852427601814270020e-01 -6.461756303906440735e-03 -4.141474664211273193e-01
4.984544217586517334e-01 -1.450527459383010864e-01 -1.154440492391586304e-01
-3.615801632404327393e-01 -7.793352752923965454e-02 -1.749988496303558350e-01
4.777971804141998291e-01 -1.455813795328140259e-01 1.189945191144943237e-01
2.079238891601562500e-01 -1.353598833084106445e-01 -2.309386879205703735e-01
2.194661200046539307e-01 -1.211752966046333313e-01 3.067447841167449951e-01
-6.073191165924072266e-01 -2.770667523145675659e-02 -3.486487641930580139e-02
1.422712393105030060e-02 3.643808513879776001e-02 -4.736291766166687012e-01
-3.111991286277770996e-01 -7.858974486589431763e-02 2.458997815847396851e-01
-5.085204839706420898e-01 -4.231132194399833679e-02 -1.834525465965270996e-01
4.681146740913391113e-01 -1.503168046474456787e-01 5.550890788435935974e-02
3.881455957889556885e-01 -1.488588154315948486e-01 1.237489432096481323e-01
-4.242998659610748291e-01 1.427094191312789917e-01 -1.521748751401901245e-01
3.662206232547760010e-01 -1.205094978213310242e-01 3.016126453876495361e-01
1.793879568576812744e-01 1.030712351202964783e-01 -1.971370279788970947e-01
-1.167250499129295349e-01 -1.256080120801925659e-01 -2.309333533048629761e-03
3.269070386886596680e-02 -1.154354661703109741e-01 2.894493341445922852e-01
4.429506361484527588e-01 -1.144861727952957153e-01 3.021192252635955811e-01
1.021887138485908508e-01 -1.315879523754119873e-01 -2.204461842775344849e-01
-6.463333964347839355e-01 5.050392448902130127e-02 2.738323807716369629e-01
6.990535855293273926e-01 -1.661099493503570557e-02 6.806829571723937988e-02
-2.713267505168914795e-01 -5.253488570451736450e-02 3.785700500011444092e-01
-1.669748872518539429e-01 6.996685266494750977e-02 4.465213716030120850e-01
-5.832765251398086548e-02 -1.156805157661437988e-01 2.385552376508712769e-01
-4.435117840766906738e-01 -5.943014472723007202e-02 -1.806956231594085693e-01
7.013159394264221191e-01 -2.105017937719821930e-02 -9.840734302997589111e-02
5.667501688003540039e-01 3.706836700439453125e-02 1.815851218998432159e-02
-2.279125452041625977e-01 -8.634515106678009033e-02 -2.733601927757263184e-01
-4.134975671768188477e-01 1.505608856678009033e-01 7.093617320060729980e-02
-2.762364149093627930e-01 1.498395800590515137e-01 -7.194988429546356201e-02
-8.012656122446060181e-02 1.253479421138763428e-01 2.429493069648742676e-01
4.049757719039916992e-01 6.123414263129234314e-02 2.112293243408203125e-01
-1.656346023082733154e-02 1.345161646604537964e-01 9.728531539440155029e-02
-4.014201462268829346e-01 -3.148420900106430054e-02 -3.404584228992462158e-01
-2.538093626499176025e-01 1.271322965621948242e-01 -2.662475407123565674e-01
2.227151095867156982e-01 -1.407805234193801880e-01 -1.949208825826644897e-01
-4.993921518325805664e-02 -1.062848418951034546e-01 -2.933017313480377197e-01
-3.361514955759048462e-02 -1.017629355192184448e-01 -3.217740356922149658e-01
1.231123432517051697e-01 4.097908735275268555e-02 4.526215195655822754e-01
-7.079215049743652344e-01 1.074731200933456421e-01 1.107397973537445068e-01
-4.471949040889739990e-01 1.388965398073196411e-01 1.908924132585525513e-01
-4.722335934638977051e-01 -4.103117063641548157e-02 2.551397085189819336e-01
-5.343237519264221191e-01 1.430448591709136963e-01 9.238216280937194824e-02
-2.143734600394964218e-03 3.476691991090774536e-02 4.835469126701354980e-01
-6.797103285789489746e-01 7.779007777571678162e-03 1.277309358119964600e-01
-1.416813135147094727e-01 1.416206210851669312e-01 1.317194998264312744e-01
6.167747974395751953e-01 -4.940402507781982422e-02 2.838143408298492432e-01
5.686286091804504395e-01 -1.372063308954238892e-01 1.181392669677734375e-01
-4.997065067291259766e-01 -5.885469913482666016e-02 1.422750484198331833e-02
-4.938692152500152588e-01 7.406579703092575073e-02 3.725866079330444336e-01
2.808143794536590576e-01 -1.071243956685066223e-01 -3.586974442005157471e-01
2.364478260278701782e-02 8.202929794788360596e-02 -3.843231201171875000e-01
-5.215849280357360840e-01 1.062164455652236938e-01 3.016059100627899170e-01
3.067198097705841064e-01 -1.151256933808326721e-01 -3.314986824989318848e-01
-2.379948347806930542e-01 -6.037912890315055847e-02 -3.658824563026428223e-01
6.241554617881774902e-01 -1.199304684996604919e-01 -1.755964010953903198e-01
-2.844446003437042236e-01 -8.566570281982421875e-02 2.316588163375854492e-01
-7.535993456840515137e-01 5.595920607447624207e-02 -6.059217825531959534e-02
-8.259500563144683838e-02 1.250319629907608032e-01 -2.360523045063018799e-01
3.910233080387115479e-01 -7.519905269145965576e-02 -4.039146900177001953e-01
4.612995386123657227e-01 -1.481616646051406860e-01 -1.049905866384506226e-01
-6.518561244010925293e-01 1.032341495156288147e-01 -1.937543898820877075e-01
4.104949533939361572e-01 -1.145436707884073257e-02 4.046285450458526611e-01
-4.482387304306030273e-01 1.353700309991836548e-01 2.139185667037963867e-01
-6.101599931716918945e-01 -2.497735433280467987e-02 -6.731203198432922363e-02
-3.590801358222961426e-01 -8.882331103086471558e-02 -1.993158087134361267e-02
-4.009711742401123047e-01 4.060254991054534912e-02 -4.170013666152954102e-01
2.392704784870147705e-01 -1.508732885122299194e-01 -8.064071834087371826e-02
3.101974725723266602e-01 -1.470959335565567017e-01 1.499030143022537231e-01
2.291104197502136230e-01 -1.513297557830810547e-01 5.970301106572151184e-02
7.500452399253845215e-01 -8.499901741743087769e-02 -5.081513896584510803e-02
-2.543512880802154541e-01 1.483821272850036621e-01 1.032766103744506836e-01
-1.835916936397552490e-01 1.073176860809326172e-01 -3.438849449157714844e-01
-6.346793174743652344e-01 1.184870675206184387e-01 1.747333556413650513e-01
1.798242330551147461e-01 -1.303360313177108765e-01 2.551024556159973145e-01
-4.038377404212951660e-01 -5.340990051627159119e-02 -2.649022340774536133e-01
1.228329613804817200e-01 1.180869638919830322e-01 1.239528954029083252e-01
4.728112816810607910e-01 -8.761253952980041504e-02 -3.576859533786773682e-01
6.061449050903320312e-01 7.364698685705661774e-03 1.821496635675430298e-01
-4.637573957443237305e-01 1.495843231678009033e-01 4.983400925993919373e-02
-4.290074706077575684e-01 1.475900262594223022e-01 -9.837335348129272461e-02
1.889331266283988953e-03 1.028641909360885620e-01 -3.175125718116760254e-01
-3.815792500972747803e-01 1.281663030385971069e-01 -2.538162469863891602e-01
2.861595749855041504e-01 -1.467949599027633667e-01 1.507985144853591919e-01
2.708097696304321289e-01 7.847880572080612183e-02 2.667786777019500732e-01
3.516402095556259155e-02 1.093815937638282776e-01 -2.701810598373413086e-01
-2.108095586299896240e-01 -1.092753484845161438e-01 1.212469339370727539e-01
-6.128125190734863281e-01 1.372745260596275330e-02 2.655254304409027100e-01
-6.010861396789550781e-01 3.985279239714145660e-03 2.565059661865234375e-01
-5.442228913307189941e-01 1.329392641782760620e-01 1.782639026641845703e-01
-2.794612348079681396e-01 1.362693905830383301e-01 -2.148058265447616577e-01
-5.048325657844543457e-01 -5.158996209502220154e-02 1.328862160444259644e-01
-5.138286352157592773e-01 1.956501044332981110e-02 -3.486377000808715820e-01
-4.856449365615844727e-01 1.222622916102409363e-01 -2.476392984390258789e-01
-3.631800115108489990e-01 -8.628232777118682861e-02 -7.385662198066711426e-02
-6.348460316658020020e-01 -1.850159652531147003e-02 4.384507983922958374e-02
1.184016764163970947e-01 1.201640442013740540e-01 9.932929277420043945e-02
6.912426948547363281e-01 -7.485643774271011353e-02 -2.042921334505081177e-01
4.311295747756958008e-01 7.022825628519058228e-02 -5.769591033458709717e-02
-2.816452980041503906e-01 -9.848106652498245239e-02 1.199565082788467407e-01
2.202141135931015015e-01 4.242038354277610779e-02 4.163481891155242920e-01
1.867762207984924316e-01 4.411223903298377991e-02 4.264588057994842529e-01
3.754783272743225098e-01 4.793349653482437134e-02 3.058589100837707520e-01
2.186272442340850830e-01 1.088126450777053833e-01 4.657190293073654175e-02
-4.547252655029296875e-01 -6.530974060297012329e-02 1.149164736270904541e-01
6.703185439109802246e-01 -7.562719285488128662e-02 -2.308488935232162476e-01
6.019495725631713867e-01 -2.290871739387512207e-02 2.730889618396759033e-01
1.091127693653106689e-01 5.639849603176116943e-02 4.286358654499053955e-01
2.892531156539916992e-01 -2.275502681732177734e-02 4.591112434864044189e-01
4.407023191452026367e-01 -1.376044452190399170e-01 -2.062040716409683228e-01
7.369943857192993164e-01 -7.805263996124267578e-02 -1.153420358896255493e-01
-1.290756016969680786e-01 1.336235851049423218e-01 2.061216682195663452e-01
1.723403856158256531e-02 -1.369463354349136353e-01 9.502971172332763672e-02
6.950767636299133301e-01 -1.192045360803604126e-01 -2.302214130759239197e-02
7.416678965091705322e-02 1.267800629138946533e-01 6.662456691265106201e-02
4.330103844404220581e-02 4.530020058155059814e-02 -4.583407938480377197e-01
-2.395783513784408569e-01 8.088583499193191528e-02 4.252710640430450439e-01
2.604545354843139648e-01 7.317128032445907593e-02 -2.979529201984405518e-01
2.371722906827926636e-01 -5.677160248160362244e-02 -4.557375311851501465e-01
-6.387853026390075684e-01 1.082644239068031311e-02 -2.060936242341995239e-01
1.718339771032333374e-01 -1.152200996875762939e-01 -3.265135288238525391e-01
5.003082752227783203e-01 -9.332745522260665894e-02 -3.358023762702941895e-01
-2.320277541875839233e-01 7.749705761671066284e-02 -4.202511310577392578e-01
4.243725538253784180e-02 1.304151266813278198e-01 -5.116763710975646973e-02
5.242113471031188965e-01 -1.414729952812194824e-01 1.241289675235748291e-01
-2.399569600820541382e-01 -1.023752614855766296e-01 -1.457853019237518311e-01
-4.262138009071350098e-01 1.355429291725158691e-01 -2.034033834934234619e-01
-3.385443240404129028e-02 -6.497351080179214478e-02 4.359472692012786865e-01
1.947073787450790405e-01 6.049121171236038208e-02 3.850332498550415039e-01
5.284485220909118652e-01 -8.728006482124328613e-02 -3.316288590431213379e-01
2.688611857593059540e-02 -1.390142738819122314e-01 6.726329028606414795e-02
5.693597793579101562e-01 2.244415506720542908e-02 -1.775332838296890259e-01
-9.681796282529830933e-02 -1.192150190472602844e-01 1.765648275613784790e-01
1.342921406030654907e-01 -1.478499323129653931e-01 1.967995241284370422e-02
3.170989453792572021e-01 -1.035211309790611267e-01 -3.655169606208801270e-01
-1.649479866027832031e-01 -1.113602444529533386e-01 -1.650614291429519653e-01
2.606164813041687012e-01 9.359258413314819336e-02 1.770621836185455322e-01
-2.399341315031051636e-01 -5.369459092617034912e-02 -3.829899728298187256e-01
3.458217382431030273e-01 -8.359760046005249023e-03 -4.332474470138549805e-01
3.034294843673706055e-01 -1.320953369140625000e-01 2.570463418960571289e-01
2.829393185675144196e-02 -1.381777524948120117e-01 -8.734233677387237549e-02
6.231780648231506348e-01 1.870021969079971313e-02 2.649399079382419586e-02
5.073879361152648926e-01 -1.490920186042785645e-01 -1.839089579880237579e-02
1.090697348117828369e-01 1.230827271938323975e-01 5.699324235320091248e-02
-5.967066437005996704e-02 5.481534078717231750e-02 4.648726880550384521e-01
3.292407095432281494e-01 -1.040148288011550903e-01 3.601526021957397461e-01
1.529018580913543701e-02 -1.040197014808654785e-01 -3.318644165992736816e-01
6.396505236625671387e-02 1.132423505187034607e-01 2.351231276988983154e-01
-5.017632842063903809e-01 2.809276059269905090e-02 -3.633938431739807129e-01
-5.062334984540939331e-02 1.169308125972747803e-01 -2.705739140510559082e-01
-5.220095068216323853e-02 1.399161666631698608e-01 1.211418304592370987e-03
1.803092062473297119e-01 1.051877588033676147e-01 -1.780214160680770874e-01
6.605657190084457397e-02 1.271750926971435547e-01 7.940456271171569824e-02
1.291017383337020874e-01 -1.128940209746360779e-01 -3.282659053802490234e-01
-6.977395415306091309e-01 7.608201354742050171e-02 -1.879051327705383301e-01
5.286566913127899170e-03 9.290028363466262817e-02 3.628906607627868652e-01
4.423458874225616455e-01 5.003891885280609131e-02 2.247121036052703857e-01
-3.288328051567077637e-01 1.496894061565399170e-01 1.027662456035614014e-01
5.176097899675369263e-02 1.098412349820137024e-01 -2.577938139438629150e-01
-6.421103477478027344e-01 8.979299664497375488e-02 2.536056041717529297e-01
-2.705176770687103271e-01 1.515285521745681763e-01 -3.726854920387268066e-03
-5.880655646324157715e-01 -3.311011567711830139e-02 -5.155060812830924988e-02
7.878682017326354980e-02 1.269063502550125122e-01 4.452361539006233215e-02
-9.340914897620677948e-03 -1.337792873382568359e-01 1.088856011629104614e-01
-7.017467021942138672e-01 9.747488051652908325e-02 -1.431717276573181152e-01
2.637228555977344513e-02 4.433021321892738342e-02 -4.623577892780303955e-01
-1.930827945470809937e-01 -9.557317942380905151e-02 -2.526474595069885254e-01
-7.443211078643798828e-01 6.223982572555541992e-02 -1.017804741859436035e-01
-4.983205199241638184e-01 -2.146354876458644867e-02 -2.845897376537322998e-01
-4.962682723999023438e-01 6.942021101713180542e-02 -3.599059581756591797e-01
-3.649679422378540039e-01 1.515803784132003784e-01 6.267246603965759277e-02
2.699855268001556396e-01 1.014735028147697449e-01 8.610084652900695801e-03
-5.047557353973388672e-01 -4.917213693261146545e-02 -1.419145464897155762e-01
-2.240960597991943359e-01 -8.409408852458000183e-03 4.701005518436431885e-01
-3.720645904541015625e-01 1.514395922422409058e-01 -4.941373690962791443e-02
2.104832679033279419e-01 -6.353912502527236938e-02 -4.509524703025817871e-01
-1.498251408338546753e-01 -1.177654415369033813e-01 1.178954094648361206e-01
4.514404535293579102e-01 -1.488361209630966187e-01 9.655998647212982178e-02
9.130987524986267090e-02 9.607762098312377930e-02 3.124315738677978516e-01
3.790025115013122559e-01 -1.322390735149383545e-01 2.479376941919326782e-01
-7.288667559623718262e-02 -1.302361488342285156e-01 3.805540129542350769e-02
6.987388432025909424e-02 -1.158785745501518250e-01 3.008849620819091797e-01
-6.196168065071105957e-01 1.044562384486198425e-01 2.412789613008499146e-01
3.471277356147766113e-01 7.931341975927352905e-02 1.664419174194335938e-01
-1.880064755678176880e-01 4.865294322371482849e-02 4.730082750320434570e-01
-1.915961802005767822e-01 -7.029721140861511230e-02 -3.607107102870941162e-01
-3.660704195499420166e-01 1.107357442378997803e-01 3.390267491340637207e-01
-2.205564081668853760e-01 -3.315799683332443237e-02 -4.329567253589630127e-01
2.102699428796768188e-01 1.084929518401622772e-02 -4.625869393348693848e-01
3.519925475120544434e-01 -9.817077219486236572e-02 -3.733061850070953369e-01
2.521650791168212891e-01 7.542441785335540771e-02 2.974580526351928711e-01
3.564561307430267334e-01 -3.194737061858177185e-02 -4.391047954559326172e-01
-5.409344434738159180e-01 -1.972330175340175629e-02 2.570871412754058838e-01
-1.229787021875381470e-01 7.735335826873779297e-02 -4.211076498031616211e-01
-1.505199372768402100e-01 1.375865042209625244e-01 1.823372542858123779e-01
-6.897682547569274902e-01 3.920930996537208557e-02 -1.884894222021102905e-01
-5.794819593429565430e-01 1.328387111425399780e-01 1.475351750850677490e-01
1.967344135046005249e-01 7.805036753416061401e-02 -3.216722011566162109e-01
-1.079391911625862122e-01 1.426679044961929321e-01 -6.415213644504547119e-02
-2.362838387489318848e-02 1.153099015355110168e-01 -2.675103545188903809e-01
2.203877121210098267e-01 -1.389867067337036133e-01 2.069596350193023682e-01
1.025814786553382874e-01 -1.344020068645477295e-01 1.997488588094711304e-01
7.168247550725936890e-02 1.276974380016326904e-01 -3.685225918889045715e-02
-1.405846029520034790e-01 -1.224608421325683594e-01 -2.687324211001396179e-02
-6.550347805023193359e-01 2.595058456063270569e-02 -2.181296199560165405e-01
-5.948357284069061279e-03 -4.749312996864318848e-02 -4.651334285736083984e-01
-2.011706084012985229e-01 -7.402505725622177124e-02 3.507219254970550537e-01
4.763998985290527344e-01 -1.471444517374038696e-01 1.014563590288162231e-01
4.718855768442153931e-02 8.831134438514709473e-02 3.635672330856323242e-01
-8.454272150993347168e-02 -4.216929152607917786e-02 4.650148153305053711e-01
1.017833221703767776e-02 -1.254898905754089355e-01 2.153955698013305664e-01
4.295777678489685059e-01 -7.223087549209594727e-02 3.911500573158264160e-01
-1.517397463321685791e-01 -1.194057092070579529e-01 8.454483747482299805e-02
-5.932345390319824219e-01 1.395988166332244873e-01 7.708335295319557190e-03
-2.691569626331329346e-01 1.503843367099761963e-01 -5.520089343190193176e-02
6.970641613006591797e-01 -1.097273677587509155e-01 -1.130476146936416626e-01
-3.894816040992736816e-01 -5.692032724618911743e-02 -2.642837464809417725e-01
3.520706892013549805e-01 4.611889645457267761e-02 3.310852646827697754e-01
-4.274872839450836182e-01 -7.380237430334091187e-02 7.461167871952056885e-02
-1.398154646158218384e-01 1.340215355157852173e-01 2.079889178276062012e-01
-1.242597550153732300e-01 -1.237051710486412048e-01 6.240529194474220276e-02
-2.630432546138763428e-01 9.375045448541641235e-02 -3.839286267757415771e-01
-2.699373960494995117e-01 -9.828063100576400757e-02 1.464904844760894775e-01
6.706817746162414551e-01 -2.302989829331636429e-03 6.643393635749816895e-02
-4.520068764686584473e-01 -1.002614106982946396e-02 -3.509466052055358887e-01
-5.694270730018615723e-01 -2.646742202341556549e-02 1.830598860979080200e-01
7.209915518760681152e-01 -5.076698958873748779e-02 1.362797915935516357e-01
-2.305237501859664917e-01 8.415228873491287231e-02 4.192701578140258789e-01
3.360233008861541748e-01 8.994089066982269287e-02 3.002767264842987061e-02
8.768164366483688354e-02 5.916780978441238403e-02 -4.237384498119354248e-01
6.353241205215454102e-01 -2.624234370887279510e-02 2.389378696680068970e-01
-4.378221929073333740e-02 8.820027112960815430e-02 -3.832243680953979492e-01
-3.046713396906852722e-02 -1.343362480401992798e-01 -4.668848961591720581e-02
1.860108524560928345e-01 1.119448468089103699e-01 8.760081231594085693e-02
-3.327958583831787109e-01 -9.099191427230834961e-02 -9.071402251720428467e-02
4.449818432331085205e-01 1.881713792681694031e-02 3.345821797847747803e-01
2.556604146957397461e-01 7.704252749681472778e-02 2.872086167335510254e-01
4.658001065254211426e-01 6.291056424379348755e-02 -4.379981383681297302e-02
6.358923316001892090e-01 5.610362859442830086e-04 -1.604613214731216431e-01
6.009202003479003906e-01 -1.345126479864120483e-01 9.977246820926666260e-02
5.116822123527526855e-01 3.779405355453491211e-02 1.887674480676651001e-01
5.841273665428161621e-01 2.709832787513732910e-02 1.026625633239746094e-01
-5.059304237365722656e-01 4.800675436854362488e-03 -3.359697163105010986e-01
-2.251315116882324219e-01 -8.073005825281143188e-02 3.096056878566741943e-01
-2.586225271224975586e-01 -1.042439788579940796e-01 -7.708092033863067627e-02
3.792484998703002930e-01 -1.513281166553497314e-01 9.222054481506347656e-02
-5.587872862815856934e-01 1.435002684593200684e-01 4.038099665194749832e-03
-1.048984900116920471e-01 -1.130971312522888184e-01 -2.152187079191207886e-01
-4.629299044609069824e-01 -6.721458584070205688e-02 -2.673374675214290619e-02
-7.710970193147659302e-02 9.968081861734390259e-02 3.632428646087646484e-01
2.430450171232223511e-01 -1.464062780141830444e-01 -1.477693468332290649e-01
-2.898128628730773926e-01 5.859995260834693909e-03 4.609733819961547852e-01
4.311378300189971924e-01 7.133708894252777100e-02 -5.567098036408424377e-03
-5.679056048393249512e-01 -3.935188427567481995e-02 -4.874277859926223755e-02
3.055984973907470703e-01 -1.078568324446678162e-01 -3.546635210514068604e-01
-2.449654191732406616e-01 -1.062991768121719360e-01 8.604034781455993652e-02
-2.086281776428222656e-01 1.222255527973175049e-01 -2.859986722469329834e-01
-5.843732357025146484e-01 1.287740916013717651e-01 1.708727926015853882e-01
-5.822399854660034180e-01 8.010246604681015015e-02 3.156057298183441162e-01
-5.095127820968627930e-01 -5.606257542967796326e-02 3.834772482514381409e-02
1.022525653243064880e-01 1.274422183632850647e-02 4.875467419624328613e-01
2.472225725650787354e-01 8.538017421960830688e-02 2.512520849704742432e-01
6.455553770065307617e-01 -4.434125125408172607e-02 -2.566744983196258545e-01
2.871837317943572998e-01 5.674506723880767822e-02 3.433153629302978516e-01
-2.289040833711624146e-01 -8.876939117908477783e-02 -2.597876787185668945e-01
4.644300043582916260e-01 -1.482106894254684448e-01 9.622746706008911133e-02
4.235751628875732422e-01 6.267079710960388184e-02 -1.718959361314773560e-01
5.962612479925155640e-02 1.282221376895904541e-01 7.057394087314605713e-02
7.318696379661560059e-01 -7.762738317251205444e-02 1.200570017099380493e-01
1.942238956689834595e-01 -7.874719053506851196e-02 -4.283953011035919189e-01
-6.708303689956665039e-01 9.808388352394104004e-02 -1.857405900955200195e-01
5.420573949813842773e-01 4.143379256129264832e-02 8.275710046291351318e-02
1.712895631790161133e-01 -1.100244224071502686e-01 -3.459758162498474121e-01
2.268116772174835205e-01 -8.568087220191955566e-02 -4.140501618385314941e-01
-3.810706734657287598e-01 -3.305443376302719116e-02 3.626958131790161133e-01
4.765552282333374023e-02 -7.524093240499496460e-02 -4.252855777740478516e-01
-5.211919546127319336e-01 1.398370862007141113e-01 1.425116807222366333e-01
-2.099120430648326874e-02 -5.298352614045143127e-02 -4.550198614597320557e-01
-6.117870211601257324e-01 1.299924254417419434e-01 1.310298293828964233e-01
3.935733735561370850e-01 -1.535396128892898560e-01 -3.980232402682304382e-02
-4.745345711708068848e-01 -2.833213284611701965e-02 3.005956113338470459e-01
5.010874271392822266e-01 4.116589203476905823e-02 1.864251643419265747e-01
7.318384647369384766e-01 -4.882025718688964844e-02 -1.113855242729187012e-01
-4.552673995494842529e-01 -1.920781098306179047e-02 -3.292442858219146729e-01
4.337150454521179199e-01 6.094129011034965515e-02 -1.673529893159866333e-01
-1.544231176376342773e-01 -7.235257327556610107e-02 -3.725411891937255859e-01
-3.949765563011169434e-01 1.232929974794387817e-01 2.884783744812011719e-01
2.475436925888061523e-01 -1.349124759435653687e-01 2.389457970857620239e-01
-2.731924653053283691e-01 8.445086330175399780e-02 4.159127771854400635e-01
-5.926293134689331055e-01 1.135736629366874695e-01 2.348699718713760376e-01
4.630843698978424072e-01 -9.878300875425338745e-02 -3.407935202121734619e-01
-1.300680786371231079e-01 -6.944543123245239258e-02 -3.911398351192474365e-01
-2.056299746036529541e-01 1.490976512432098389e-01 3.798323124647140503e-02
-4.491236060857772827e-02 7.876698672771453857e-02 4.171608090400695801e-01
5.598217248916625977e-01 -1.157248914241790771e-01 -2.470499724149703979e-01
-4.446136951446533203e-01 -5.574348568916320801e-02 -2.029390335083007812e-01
6.412544250488281250e-01 -7.214690558612346649e-03 1.784842759370803833e-01
-2.301588803529739380e-01 1.469516605138778687e-01 -1.009732037782669067e-01
1.373968273401260376e-01 1.201957687735557556e-01 3.177477046847343445e-02
-7.359632849693298340e-01 1.033029109239578247e-01 3.259828081354498863e-03
-2.219512164592742920e-01 1.499248743057250977e-01 2.649295330047607422e-02
-2.163687050342559814e-01 1.496014147996902466e-01 -2.119014598429203033e-02
-6.694390624761581421e-02 -1.193939521908760071e-01 2.043447494506835938e-01
6.914876699447631836e-01 -2.896241657435894012e-02 1.523059308528900146e-01
5.650308132171630859e-01 -1.087478250265121460e-01 -2.652392387390136719e-01
-2.086362093687057495e-01 -6.260307878255844116e-02 -3.748974502086639404e-01
-6.599193811416625977e-01 -9.041810408234596252e-03 4.221826046705245972e-02
-1.696175485849380493e-01 -1.089077070355415344e-01 -1.820236146450042725e-01
-1.952138990163803101e-01 -1.151765063405036926e-01 3.748691082000732422e-02
-3.336249291896820068e-01 1.522961258888244629e-01 3.458084166049957275e-02
2.485607564449310303e-01 -1.153210178017616272e-01 3.311355412006378174e-01
-6.690320968627929688e-01 7.816174626350402832e-02 2.417898029088973999e-01
1.438842117786407471e-01 -1.056271567940711975e-01 3.583139777183532715e-01
5.013589262962341309e-01 -5.689321830868721008e-02 -3.730812370777130127e-01
-9.301187843084335327e-02 5.254398286342620850e-02 -4.615758657455444336e-01
2.589107155799865723e-01 6.262270361185073853e-02 -3.397768139839172363e-01
-5.661575198173522949e-01 6.223867088556289673e-02 3.408994376659393311e-01
-6.225640177726745605e-01 2.380033023655414581e-02 2.730681598186492920e-01
6.187057495117187500e-01 1.025553885847330093e-02 1.400953978300094604e-01
-1.647421121597290039e-01 -1.187227442860603333e-01 -5.327114835381507874e-02
5.092324614524841309e-01 3.278865292668342590e-02 -2.219566255807876587e-01
-7.156562209129333496e-01 3.062860481441020966e-02 1.336871981620788574e-01
2.086037993431091309e-01 -1.507843881845474243e-01 5.368546769022941589e-02
-6.375697851181030273e-01 1.257389187812805176e-01 1.265669465065002441e-01
4.330665618181228638e-02 -1.362351775169372559e-01 -1.369328647851943970e-01
-2.692505121231079102e-01 -1.044766902923583984e-01 -6.345422938466072083e-03
-6.391355991363525391e-01 -1.340462081134319305e-02 -8.156099915504455566e-02
1.624535955488681793e-02 1.136856228113174438e-01 -2.561759352684020996e-01
7.003660798072814941e-01 -2.266713045537471771e-02 -1.110233366489410400e-01
1.778411865234375000e-01 8.435643464326858521e-02 3.118318319320678711e-01
-4.153645634651184082e-01 -7.630190998315811157e-02 -6.462414562702178955e-02
-5.918509364128112793e-01 6.718169897794723511e-02 -3.024359345436096191e-01
6.023536324501037598e-01 2.116948552429676056e-02 1.010805070400238037e-01
-1.320876479148864746e-01 -7.403171807527542114e-02 -3.774059116840362549e-01
8.494669198989868164e-02 -1.225554719567298889e-01 2.715894877910614014e-01
2.304856479167938232e-01 9.773296117782592773e-02 -1.791586577892303467e-01
-3.531702160835266113e-01 1.489034593105316162e-01 -9.996712207794189453e-02
1.265217661857604980e-01 -1.357520520687103271e-01 2.004465311765670776e-01
2.586830258369445801e-01 -1.361029148101806641e-01 2.326394021511077881e-01
-3.123178184032440186e-01 -8.410620689392089844e-02 2.087761610746383667e-01
-3.296150565147399902e-01 1.335414648056030273e-01 -2.320265769958496094e-01
-5.741294473409652710e-02 -6.246693432331085205e-02 -4.305897057056427002e-01
2.636327594518661499e-02 1.307224631309509277e-01 -8.386817574501037598e-02
-1.218194793909788132e-02 1.114842891693115234e-01 2.913745045661926270e-01
-1.161325722932815552e-01 -1.185670197010040283e-01 -1.551015973091125488e-01
1.243132129311561584e-01 1.257932046428322792e-03 4.897658228874206543e-01
9.569162875413894653e-02 1.241140514612197876e-01 7.270021736621856689e-02
2.689353227615356445e-01 9.872848540544509888e-02 1.006574630737304688e-01
-6.483668684959411621e-01 9.459472494199872017e-04 -1.526744067668914795e-01
-2.232907563447952271e-01 8.651576936244964600e-02 -4.027793407440185547e-01
5.806505084037780762e-01 -7.336568832397460938e-02 -3.148601949214935303e-01
1.771698892116546631e-01 2.891316078603267670e-02 4.545744955539703369e-01
-4.947957694530487061e-01 1.435356885194778442e-01 -1.075142920017242432e-01
1.876409798860549927e-01 1.633290015161037445e-02 -4.633174538612365723e-01
7.406636476516723633e-01 -4.658706858754158020e-02 -6.909492611885070801e-02
-4.908525943756103516e-01 -4.235630109906196594e-02 -2.109251320362091064e-01
1.244506016373634338e-01 1.219857558608055115e-01 1.621113903820514679e-02
2.220880687236785889e-01 -1.315918564796447754e-01 2.554551362991333008e-01
-4.085198640823364258e-01 1.045972928404808044e-01 -3.322474360466003418e-01
-2.076564282178878784e-01 1.493813097476959229e-01 -1.094648148864507675e-02
4.662343561649322510e-01 -1.495665758848190308e-01 -7.912404835224151611e-02
-2.128947228193283081e-01 -7.025930285453796387e-02 -3.492560982704162598e-01
3.966961801052093506e-01 3.390056267380714417e-02 -3.337960541248321533e-01
-3.527346849441528320e-01 -8.534958958625793457e-02 -1.186884939670562744e-01
1.949419379234313965e-01 8.713939040899276733e-02 -2.824276983737945557e-01
1.672173291444778442e-01 1.122447103261947632e-01 -1.198564618825912476e-01
-4.325321018695831299e-01 1.501318365335464478e-01 -5.161175504326820374e-02
-2.392146438360214233e-01 1.209859028458595276e-01 -2.945397496223449707e-01
5.708933621644973755e-02 1.150900721549987793e-01 2.274580150842666626e-01
-1.890776604413986206e-01 -1.131177768111228943e-01 1.092711836099624634e-01
-4.070433229207992554e-02 -1.261298507452011108e-01 1.677125990390777588e-01
-2.851424813270568848e-01 -1.006464287638664246e-01 7.021386921405792236e-02
-4.009877741336822510e-01 1.016072630882263184e-01 3.572264015674591064e-01
1.202147156000137329e-01 5.672065913677215576e-02 4.243526458740234375e-01
2.133793830871582031e-01 6.283964216709136963e-02 3.687509000301361084e-01
3.951992690563201904e-01 4.271121323108673096e-02 3.070315718650817871e-01
-7.155027985572814941e-01 1.742896996438503265e-02 4.602527990937232971e-02
-5.561221241950988770e-01 3.011818416416645050e-02 -3.262126445770263672e-01
-4.958258271217346191e-01 -4.551567509770393372e-02 1.986161172389984131e-01
-7.189148105680942535e-03 1.196828112006187439e-02 4.986031055450439453e-01
2.147909402847290039e-01 -1.249737963080406189e-01 -2.900107800960540771e-01
7.067536115646362305e-01 -9.692658483982086182e-02 -1.444247066974639893e-01
2.700758576393127441e-01 -1.521398723125457764e-01 -7.067082822322845459e-02
-2.241045683622360229e-01 7.411400787532329559e-03 4.791557490825653076e-01
2.809523604810237885e-02 -6.299477070569992065e-02 4.499512314796447754e-01
-1.603991240262985229e-01 -3.749033436179161072e-02 -4.462316632270812988e-01
-5.824478864669799805e-01 1.258315443992614746e-01 -1.707585901021957397e-01
1.802612245082855225e-01 -1.357773691415786743e-01 -2.207662910223007202e-01
-5.040320158004760742e-01 1.148044019937515259e-01 -2.669319808483123779e-01
1.739183068275451660e-01 -1.261917650699615479e-01 -2.770510315895080566e-01
-3.139709234237670898e-01 1.046207845211029053e-01 -3.505048155784606934e-01
-2.082901000976562500e-01 -1.017854213714599609e-01 2.025859355926513672e-01
-6.441040635108947754e-01 5.052498728036880493e-02 -2.579312026500701904e-01
6.288965344429016113e-01 -8.869083225727081299e-02 2.515124678611755371e-01
4.259330332279205322e-01 -2.172879688441753387e-02 -4.064293801784515381e-01
-6.879495382308959961e-01 1.778304390609264374e-02 1.550561040639877319e-01
-6.131668686866760254e-01 -7.577044889330863953e-03 1.991471052169799805e-01
1.052443385124206543e-01 1.178968250751495361e-01 -1.468729823827743530e-01
1.338520646095275879e-01 -1.438922435045242310e-01 1.191403865814208984e-01
-3.059374094009399414e-01 -5.760365352034568787e-02 3.422154188156127930e-01
1.844746321439743042e-01 -1.425803899765014648e-01 1.648537367582321167e-01
-1.038607656955718994e-01 1.432989239692687988e-01 4.574241489171981812e-02
-1.577727496623992920e-02 -4.595249146223068237e-02 -4.658006429672241211e-01
-3.218236565589904785e-01 -8.406180143356323242e-02 1.961863189935684204e-01
-6.052470803260803223e-01 1.335850507020950317e-01 1.072773337364196777e-01
-3.006275594234466553e-01 -7.139437645673751831e-02 -2.833871841430664062e-01
-6.888802647590637207e-01 1.133378595113754272e-01 -9.839421510696411133e-02
-8.655785769224166870e-02 9.969449043273925781e-02 3.653875887393951416e-01
-6.365611553192138672e-01 1.315971463918685913e-01 -4.364202171564102173e-02
3.781132102012634277e-01 5.598397552967071533e-02 -2.705029249191284180e-01
1.027142032980918884e-01 -1.231634914875030518e-01 -2.732899785041809082e-01
5.174396634101867676e-01 3.421243652701377869e-02 1.996634006500244141e-01
-3.134627640247344971e-02 1.352581083774566650e-01 1.073006987571716309e-01
5.269588232040405273e-01 -1.200101152062416077e-02 3.277276158332824707e-01
-3.223410844802856445e-01 1.371117383241653442e-01 2.248504161834716797e-01
-6.374062597751617432e-02 -1.314332783222198486e-01 2.478221990168094635e-02
3.174434304237365723e-01 9.295174479484558105e-02 4.410886019468307495e-02
1.204879879951477051e-01 6.693778932094573975e-02 -3.946344852447509766e-01
-3.354524672031402588e-01 -3.206883743405342102e-02 3.927724659442901611e-01
-7.362315654754638672e-01 9.844566881656646729e-02 7.644651830196380615e-02
-5.957733988761901855e-01 4.269958287477493286e-02 -3.012017011642456055e-01
1.087802276015281677e-02 -1.358389109373092651e-01 1.049754321575164795e-01
-1.057677567005157471e-01 1.334866285324096680e-01 -1.840880513191223145e-01
6.708877682685852051e-01 -9.544648230075836182e-02 -2.023402899503707886e-01
6.091457009315490723e-01 -1.514866203069686890e-02 -2.553279995918273926e-01
-7.092200219631195068e-02 1.410568505525588989e-01 3.940651565790176392e-02
4.684750735759735107e-01 5.827240645885467529e-02 1.134932935237884521e-01
-3.062178492546081543e-01 5.746687576174736023e-02 -4.364766478538513184e-01
3.214903473854064941e-01 -1.176931560039520264e-01 3.185852169990539551e-01
-7.421034574508666992e-01 3.428348153829574585e-02 4.066610708832740784e-04
-1.783769726753234863e-01 7.475069910287857056e-02 -4.275943934917449951e-01
3.375177085399627686e-01 -1.532652825117111206e-01 -6.299689412117004395e-02
-5.551624894142150879e-01 9.921681880950927734e-02 3.004688620567321777e-01
-3.687280416488647461e-01 1.639459282159805298e-02 -4.261443614959716797e-01
-4.958372712135314941e-01 8.400453627109527588e-02 -3.425249755382537842e-01
1.989614963531494141e-01 9.639663249254226685e-02 2.301841825246810913e-01
-6.803898811340332031e-01 2.199780754745006561e-02 1.855591833591461182e-01
3.089512325823307037e-02 9.533360600471496582e-02 3.444207310676574707e-01
5.664902329444885254e-01 -7.813919335603713989e-02 3.142777681350708008e-01
6.068196296691894531e-01 9.296262636780738831e-03 1.715506315231323242e-01
7.203729152679443359e-01 -2.515820041298866272e-02 5.382474977523088455e-03
-5.171737074851989746e-02 1.363860070705413818e-01 1.166541129350662231e-01
3.963306546211242676e-01 -1.176758036017417908e-01 3.053217232227325439e-01
-4.469721615314483643e-01 -7.038897275924682617e-02 5.383105948567390442e-02
2.166240662336349487e-01 -1.516733765602111816e-01 -3.168555349111557007e-02
-4.378101527690887451e-01 8.190129697322845459e-02 -3.697862327098846436e-01
-2.992909848690032959e-01 8.385530114173889160e-02 4.141496717929840088e-01
-4.036740362644195557e-01 -7.689091563224792480e-02 1.077625155448913574e-01
-3.427319526672363281e-01 5.502409860491752625e-02 -4.296142756938934326e-01
-3.796781301498413086e-01 9.155938774347305298e-02 -3.703154325485229492e-01
-7.309178709983825684e-01 3.147373348474502563e-02 -6.458373367786407471e-02
3.381038606166839600e-01 3.128087893128395081e-02 3.800118267536163330e-01
1.003800183534622192e-01 -1.052658185362815857e-01 -3.511035740375518799e-01
1.730785071849822998e-01 1.073484346270561218e-01 -1.670867353677749634e-01
-6.622184067964553833e-02 1.147866100072860718e-01 -2.878359556198120117e-01
-4.789631366729736328e-01 -6.385882943868637085e-02 -2.078819088637828827e-04
-1.301903873682022095e-01 1.451941579580307007e-01 -2.483150362968444824e-02
2.166556417942047119e-01 -1.054736301302909851e-01 -3.644363284111022949e-01
3.082151412963867188e-01 -1.482058614492416382e-01 -1.409528255462646484e-01
3.413252830505371094e-01 -1.486097127199172974e-01 -1.373466551303863525e-01
-4.165872037410736084e-01 1.420564800500869751e-01 1.765606552362442017e-01
3.836993277072906494e-01 -1.238763332366943359e-01 -2.888875305652618408e-01
5.350028276443481445e-01 4.502799361944198608e-02 5.354961380362510681e-02
-7.110739350318908691e-01 1.130914837121963501e-01 -2.985593676567077637e-02
-7.507743835449218750e-01 7.218325138092041016e-02 -8.178752660751342773e-02
7.485404610633850098e-01 -4.875981062650680542e-02 5.420285742729902267e-04
-1.652579754590988159e-01 1.283240169286727905e-01 -2.449929416179656982e-01
1.214566826820373535e-01 1.156214028596878052e-01 -1.505295485258102417e-01
1.306642889976501465e-01 -1.232744008302688599e-01 -2.814345657825469971e-01
-6.430281996726989746e-01 2.111498964950442314e-03 1.858259141445159912e-01
-3.227514326572418213e-01 -4.259167611598968506e-02 -3.650385737419128418e-01
-2.032755315303802490e-01 -3.190614655613899231e-02 4.495077729225158691e-01
1.517938226461410522e-01 -9.974271804094314575e-02 3.778783977031707764e-01
-1.124948356300592422e-02 1.323348879814147949e-01 -1.164154112339019775e-01
4.307589828968048096e-01 6.988383829593658447e-02 -6.768685579299926758e-02
-1.450023707002401352e-02 -8.561568707227706909e-02 -3.854504823684692383e-01
-5.960590243339538574e-01 1.182583346962928772e-02 -2.643441259860992432e-01
-5.284555554389953613e-01 -5.152233690023422241e-02 -2.761774696409702301e-03
-4.678451716899871826e-01 1.460519284009933472e-01 -9.659886360168457031e-02
-7.351971268653869629e-01 8.401989191770553589e-02 -1.098613739013671875e-01
-5.147333145141601562e-01 9.959911555051803589e-02 -3.041289746761322021e-01
1.325708478689193726e-01 -1.451262682676315308e-01 9.820243716239929199e-02
-2.506516873836517334e-03 1.347987502813339233e-01 -5.053301155567169189e-02
-6.220261752605438232e-02 9.749995172023773193e-02 3.670479655265808105e-01
-4.638440608978271484e-01 -5.573318153619766235e-02 1.846607774496078491e-01
-6.763072013854980469e-01 4.354791343212127686e-02 2.328671663999557495e-01
-3.143105208873748779e-01 1.141527667641639709e-02 -4.445206522941589355e-01
-2.330801486968994141e-01 1.104998812079429626e-01 -3.356298208236694336e-01
3.831891715526580811e-02 1.256597191095352173e-01 -1.419664025306701660e-01
7.110520005226135254e-01 -2.063097432255744934e-02 3.535298258066177368e-02
-4.249701499938964844e-01 -1.737475022673606873e-02 3.686131834983825684e-01
2.514593005180358887e-01 1.033713147044181824e-01 6.161275133490562439e-02
3.426552414894104004e-01 8.880066126585006714e-02 -2.390610240399837494e-02
-1.002445369958877563e-01 6.773193925619125366e-02 -4.384493529796600342e-01
3.239455521106719971e-01 3.484786301851272583e-02 -3.794982731342315674e-01
-5.113832950592041016e-01 -4.831902310252189636e-02 -1.340730488300323486e-01
-6.716418266296386719e-01 9.395468235015869141e-02 -1.945374310016632080e-01
-3.238506317138671875e-01 -4.896815121173858643e-02 3.573307991027832031e-01
-1.664368659257888794e-01 -1.184899955987930298e-01 5.947820469737052917e-02
-5.286232233047485352e-01 3.311092406511306763e-02 -3.483763039112091064e-01
1.305733770132064819e-01 1.122757643461227417e-01 1.792570799589157104e-01
2.180931568145751953e-01 -1.318719834089279175e-01 -2.544337213039398193e-01
3.388235867023468018e-01 -1.120505258440971375e-01 3.353237807750701904e-01
-4.885681271553039551e-01 9.067630022764205933e-02 3.512027263641357422e-01
4.021676778793334961e-01 -1.327399760484695435e-01 2.402503192424774170e-01
1.928164251148700714e-02 -1.340446323156356812e-01 -1.390328407287597656e-01
1.991394013166427612e-01 1.121868640184402466e-01 1.559891621582210064e-03
-3.699875175952911377e-01 -1.666582003235816956e-02 -3.912005126476287842e-01
-1.010580807924270630e-01 -7.279644161462783813e-02 -3.931074440479278564e-01
1.346784830093383789e-02 6.783894449472427368e-02 -4.229934513568878174e-01
-1.524544209241867065e-01 -8.509612083435058594e-02 3.364689350128173828e-01
-5.583865642547607422e-01 1.417830735445022583e-01 -5.646580085158348083e-02
-3.037414550781250000e-01 1.358159184455871582e-01 -2.188012003898620605e-01
-4.738868772983551025e-01 -6.227014958858489990e-02 9.494088590145111084e-02
-5.257951021194458008e-01 1.453237235546112061e-01 -4.459974169731140137e-02
7.564418911933898926e-01 -6.295180320739746094e-02 5.784811452031135559e-03
-4.677222967147827148e-01 -3.890399634838104248e-02 -2.563734054565429688e-01
4.631384313106536865e-01 -1.370898336172103882e-01 -2.007501274347305298e-01
-1.781511455774307251e-01 1.167915835976600647e-01 -3.064292371273040771e-01
2.497619576752185822e-02 -1.007221117615699768e-01 -3.477846682071685791e-01
-3.813226521015167236e-01 -7.429005950689315796e-02 1.829181909561157227e-01
7.970528677105903625e-03 -1.273939013481140137e-01 -1.959138214588165283e-01
-1.556684076786041260e-01 1.919467933475971222e-02 4.915076196193695068e-01
-3.231777250766754150e-01 -9.518984705209732056e-02 3.710334375500679016e-02
5.015432834625244141e-01 5.492715537548065186e-02 -6.759075447916984558e-03
-6.747049093246459961e-01 1.158037185668945312e-01 -1.111463457345962524e-01
4.572218060493469238e-01 5.921487137675285339e-02 1.327496469020843506e-01
5.359810590744018555e-01 -1.289006322622299194e-01 2.010322213172912598e-01
1.094803437590599060e-01 -1.200722604990005493e-01 2.924775481224060059e-01
-3.824978470802307129e-01 1.496488600969314575e-01 -8.415836095809936523e-02
-5.704826712608337402e-01 1.421982645988464355e-01 2.468463405966758728e-02
3.698052167892456055e-01 -4.949533194303512573e-02 4.296686649322509766e-01
-3.387483656406402588e-01 3.958778455853462219e-03 4.424658119678497314e-01
-6.690036058425903320e-01 -4.892230965197086334e-03 -3.453802689909934998e-02
-2.252250611782073975e-01 9.237595647573471069e-02 -3.890964388847351074e-01
-6.626352667808532715e-01 1.078497320413589478e-01 1.859111338853836060e-01
7.305971980094909668e-01 -7.892017066478729248e-02 -1.307009458541870117e-01
2.676835060119628906e-01 -1.461544632911682129e-01 1.544309556484222412e-01
6.048420071601867676e-01 -7.418642938137054443e-02 -2.957948446273803711e-01
-3.166446834802627563e-02 1.365998536348342896e-01 -7.163007557392120361e-02
-2.078956365585327148e-02 8.313722908496856689e-02 4.006680548191070557e-01
3.978173434734344482e-01 3.763373568654060364e-02 -3.217591643333435059e-01
2.426110357046127319e-01 8.795382082462310791e-02 2.404294759035110474e-01
-1.304290741682052612e-01 -9.634432196617126465e-02 -2.947216033935546875e-01
-7.285186648368835449e-02 -9.449081122875213623e-02 -3.338039219379425049e-01
3.211147338151931763e-02 -9.703227132558822632e-02 3.658044934272766113e-01
3.851943612098693848e-01 3.564982861280441284e-02 3.373108804225921631e-01
-3.144199252128601074e-01 -1.934011653065681458e-02 -4.152167439460754395e-01
-3.014785349369049072e-01 1.462829560041427612e-01 -1.313672810792922974e-01
-4.199776947498321533e-01 -4.071459174156188965e-02 3.102856278419494629e-01
-2.379903644323348999e-01 1.265727728605270386e-01 2.807322740554809570e-01
-3.353287279605865479e-01 1.491902768611907959e-01 -9.604650735855102539e-02
-1.632632166147232056e-01 1.227922067046165466e-01 2.868936061859130859e-01
-1.179869994521141052e-01 -9.805087000131607056e-02 -2.943170666694641113e-01
-6.105042994022369385e-02 -2.623024769127368927e-02 -4.803923964500427246e-01
3.115746080875396729e-01 9.369983524084091187e-02 5.371471866965293884e-02
-1.067153215408325195e-01 1.367810070514678955e-01 1.636687070131301880e-01
4.608949720859527588e-01 -1.254428327083587646e-01 2.555418312549591064e-01
-1.024990603327751160e-01 1.391238868236541748e-01 -1.211663633584976196e-01
-8.363441377878189087e-02 -1.257806867361068726e-01 -1.115920394659042358e-01
1.660569310188293457e-01 -9.634310752153396606e-02 3.886235058307647705e-01
-1.993774920701980591e-01 -1.149312853813171387e-01 2.431170083582401276e-03
-4.710315465927124023e-01 3.345306217670440674e-02 -3.838698863983154297e-01
-3.298250436782836914e-01 -4.563986323773860931e-03 4.381890594959259033e-01
5.292112231254577637e-01 4.629439488053321838e-02 -6.281414628028869629e-02
4.278842508792877197e-01 4.585301503539085388e-02 -2.633019089698791504e-01
6.520308852195739746e-01 2.121511381119489670e-03 -1.075746566057205200e-01
3.503506779670715332e-01 -1.452715694904327393e-01 -1.700022816658020020e-01
4.646348357200622559e-01 -9.404242038726806641e-02 3.451641201972961426e-01
9.583962708711624146e-02 7.250504195690155029e-02 -3.883431255817413330e-01
4.125206917524337769e-02 1.070383861660957336e-01 -2.794657349586486816e-01
-2.080191522836685181e-01 -1.077456176280975342e-01 -1.392512023448944092e-01
-3.408840298652648926e-01 -7.340805232524871826e-02 -2.333211302757263184e-01
-2.862728238105773926e-01 -9.082829207181930542e-02 1.919580250978469849e-01
-6.557197570800781250e-01 1.267877668142318726e-01 -5.865110829472541809e-02
2.098448760807514191e-02 1.328459829092025757e-01 4.935180768370628357e-02
-3.410952985286712646e-01 1.510392501950263977e-02 4.486011564731597900e-01
6.935014575719833374e-02 1.186882108449935913e-01 -1.802517324686050415e-01
4.863405227661132812e-02 -1.056241020560264587e-01 3.389184772968292236e-01
-2.540394067764282227e-01 1.332111656665802002e-01 -2.321370393037796021e-01
-2.459365129470825195e-01 -3.915350511670112610e-02 -4.123893082141876221e-01
-3.075435161590576172e-01 8.645630441606044769e-03 4.568636715412139893e-01
1.806872040033340454e-01 -1.331980973482131958e-01 2.377326041460037231e-01
3.222656250000000000e-01 -9.705852717161178589e-02 3.786247670650482178e-01
2.718532681465148926e-01 9.656356275081634521e-02 -1.222309917211532593e-01
-6.932419538497924805e-01 8.880309015512466431e-02 1.968440711498260498e-01
8.482059836387634277e-02 3.832805901765823364e-02 4.658053815364837646e-01
-3.050366640090942383e-01 -9.852440655231475830e-02 2.366593107581138611e-02
-4.218838363885879517e-02 1.142403781414031982e-01 -2.814225554466247559e-01
-7.311821915209293365e-03 -1.284857690334320068e-01 1.762479543685913086e-01
6.432482600212097168e-02 -1.360406428575515747e-01 1.597887724637985229e-01
-7.199435830116271973e-01 2.172772213816642761e-02 6.682081520557403564e-02
4.548716247081756592e-01 1.213164906948804855e-02 3.418829739093780518e-01
-5.595642328262329102e-01 2.905858913436532021e-03 3.005255460739135742e-01
3.495351374149322510e-01 -5.623232945799827576e-02 -4.338424205780029297e-01
1.085949540138244629e-01 -1.048982366919517517e-01 3.554654717445373535e-01
-2.643993496894836426e-01 1.448610872030258179e-01 -1.404667794704437256e-01
-5.882770568132400513e-02 1.188240200281143188e-01 -2.634720504283905029e-01
3.779044747352600098e-01 -1.204729452729225159e-01 2.994534969329833984e-01
5.296460986137390137e-01 -8.755793794989585876e-03 -3.240204751491546631e-01
-6.536002755165100098e-01 -8.116101846098899841e-03 -7.730773091316223145e-02
-7.666702568531036377e-02 -1.166035011410713196e-01 2.179498523473739624e-01
4.376128017902374268e-01 -8.955675363540649414e-02 3.638284802436828613e-01
6.424754858016967773e-01 -1.319496482610702515e-01 -3.945205733180046082e-02
-4.630364477634429932e-03 1.348579376935958862e-01 6.379781663417816162e-02
-2.002696096897125244e-01 -1.142252758145332336e-01 -4.176589846611022949e-02
-6.771005392074584961e-01 3.170154243707656860e-02 2.144672125577926636e-01
5.238746404647827148e-01 -1.191437467932701111e-01 -2.566510438919067383e-01
3.401464819908142090e-01 -1.505066752433776855e-01 -1.135793179273605347e-01
-4.146614372730255127e-01 1.140206009149551392e-01 -3.025076985359191895e-01
2.406282275915145874e-01 3.890122100710868835e-02 4.145225286483764648e-01
3.994846940040588379e-01 -1.220262646675109863e-01 2.886537611484527588e-01
8.408617973327636719e-02 -1.446804106235504150e-01 7.027529645711183548e-03
2.308599054813385010e-01 9.023814648389816284e-02 -2.342744469642639160e-01
-4.845571517944335938e-01 1.431896686553955078e-01 -1.186248660087585449e-01
-6.953096389770507812e-01 1.037664711475372314e-01 -1.328655034303665161e-01
-1.046482026576995850e-01 -6.941506266593933105e-02 4.066571593284606934e-01
-3.206292539834976196e-02 3.497073426842689514e-02 -4.787203371524810791e-01
