1.272746324539184570e-01 2.651688829064369202e-02 -4.064715206623077393e-01
-3.081280887126922607e-01 -1.548141688108444214e-01 -1.173511594533920288e-01
-3.425575792789459229e-01 -1.551242917776107788e-01 1.276467889547348022e-01
4.878455996513366699e-01 -1.647091060876846313e-01 -1.341650262475013733e-03
3.464111685752868652e-01 -3.593169152736663818e-02 3.981925845146179199e-01
-8.230915665626525879e-01 6.635226309299468994e-02 -1.378389596939086914e-01
9.389268159866333008e-01 -2.748025953769683838e-02 -8.754103630781173706e-02
-4.893010258674621582e-01 -3.560993075370788574e-02 3.572393059730529785e-01
7.302368879318237305e-01 -1.281950175762176514e-01 -4.592507332563400269e-02
5.325623750686645508e-01 -7.339674234390258789e-02 3.282759487628936768e-01
3.814305663108825684e-01 8.405570685863494873e-02 3.350025415420532227e-01
-1.715891659259796143e-01 -1.141561493277549744e-01 -2.955615818500518799e-01
-1.583802253007888794e-01 -1.655519753694534302e-01 -1.187057793140411377e-01
2.356993556022644043e-01 -6.279051303863525391e-02 3.973591029644012451e-01
2.251967191696166992e-01 7.724154740571975708e-02 -3.621847629547119141e-01
8.087055385112762451e-02 -1.812942922115325928e-01 -1.992063224315643311e-02
2.103291600942611694e-01 -1.723967045545578003e-01 1.381895095109939575e-01
4.193777441978454590e-01 -6.470273435115814209e-02 3.663024008274078369e-01
2.729189097881317139e-01 -9.568368643522262573e-02 -3.348843455314636230e-01
4.443888068199157715e-01 1.558004766702651978e-01 2.719583362340927124e-02
-4.882519841194152832e-01 -1.008607670664787292e-01 -2.333524674177169800e-01
1.909954547882080078e-01 1.641010344028472900e-01 -1.499490141868591309e-01
1.102101057767868042e-01 1.544363349676132202e-01 2.209550291299819946e-01
-2.338504642248153687e-01 1.381947845220565796e-01 2.722890377044677734e-01
-1.536210477352142334e-01 -1.741092503070831299e-01 -3.623815625905990601e-02
8.403749465942382812e-01 -6.736406683921813965e-02 1.710927933454513550e-01
2.141450047492980957e-01 1.736219525337219238e-01 -5.667106807231903076e-02
-1.006573140621185303e-01 1.794014722108840942e-01 -7.946625351905822754e-02
6.469907760620117188e-01 -1.348536908626556396e-01 -1.121679097414016724e-01
-1.895405948162078857e-01 1.799144297838211060e-01 -5.049737542867660522e-02
3.345989882946014404e-01 -1.758746504783630371e-01 1.895898766815662384e-02
-4.885314702987670898e-01 7.984863966703414917e-02 3.286373317241668701e-01
-4.155491888523101807e-01 1.695076078176498413e-01 9.184362366795539856e-03
6.697076559066772461e-01 -1.138363778591156006e-01 -1.796862781047821045e-01
1.715965867042541504e-01 -1.303445994853973389e-01 -2.781460285186767578e-01
-6.957910656929016113e-01 1.221525594592094421e-01 -9.799090772867202759e-02
2.119652479887008667e-01 -1.751560270786285400e-01 -8.697105944156646729e-02
8.814221620559692383e-01 -3.133953735232353210e-02 1.714410632848739624e-01
7.249619364738464355e-01 -6.183528900146484375e-02 2.607552409172058105e-01
-5.762753263115882874e-02 1.536990702152252197e-01 -2.247923761606216431e-01
4.896404445171356201e-01 -1.638549566268920898e-01 -2.489676326513290405e-02
-6.842907667160034180e-01 1.115322038531303406e-01 -1.524996608495712280e-01
8.227756619453430176e-01 6.479005515575408936e-02 -1.294971257448196411e-01
4.102869629859924316e-01 1.229088231921195984e-01 -2.391218692064285278e-01
-3.002746105194091797e-01 -1.656637042760848999e-01 1.298259757459163666e-02
-3.982507884502410889e-01 1.689779758453369141e-01 6.606926023960113525e-02
3.239974081516265869e-01 1.539361197501420975e-02 4.044089913368225098e-01
-7.250474095344543457e-01 -6.888552755117416382e-02 -1.634875237941741943e-01
-7.110400795936584473e-01 1.160742193460464478e-01 1.347538232803344727e-01
-1.230750381946563721e-01 -1.763348132371902466e-01 -2.048714458942413330e-02
2.253751605749130249e-01 5.147727206349372864e-02 3.994779884815216064e-01
3.998680114746093750e-01 -1.716558337211608887e-01 3.532974049448966980e-02
-1.864477619528770447e-02 9.076496958732604980e-02 -3.601276874542236328e-01
2.335408329963684082e-01 -1.584778577089309692e-01 -1.830567568540573120e-01
2.658257186412811279e-01 1.577882021665573120e-01 1.651632189750671387e-01
2.313627153635025024e-01 -1.796605437994003296e-01 4.131919890642166138e-02
4.141294397413730621e-03 -1.523562967777252197e-01 -2.128605395555496216e-01
-4.897969961166381836e-01 1.372471749782562256e-01 -1.863600313663482666e-01
-7.261685132980346680e-01 1.196798756718635559e-01 -6.981948018074035645e-02
-3.310471177101135254e-01 -1.120747104287147522e-01 2.974719405174255371e-01
-5.374373793601989746e-01 -1.239051222801208496e-01 -1.271331608295440674e-01
-6.960777044296264648e-01 8.649475872516632080e-02 -2.047805339097976685e-01
2.569741606712341309e-01 -1.261164844036102295e-01 3.049414753913879395e-01
-1.285247206687927246e-01 -4.225659370422363281e-02 4.168521165847778320e-01
-1.698070317506790161e-01 5.692689493298530579e-02 -3.856573104858398438e-01
-7.761412858963012695e-01 1.086419075727462769e-01 7.905002683401107788e-02
-3.172518014907836914e-01 -1.091906800866127014e-01 -2.747948467731475830e-01
-8.215296268463134766e-01 5.641474854201078415e-03 -1.784765720367431641e-01
1.339434981346130371e-01 -4.733868688344955444e-02 4.162418246269226074e-01
1.075260154902935028e-02 -1.249248720705509186e-02 -4.109662473201751709e-01
-6.390841007232666016e-01 -1.107908338308334351e-01 -9.291667491197586060e-02
9.314608573913574219e-01 2.525913342833518982e-02 -5.843528360128402710e-02
-2.998540401458740234e-01 -9.246981143951416016e-02 -3.108301758766174316e-01
5.231856107711791992e-01 -1.505719274282455444e-01 -1.201122403144836426e-01
6.745739579200744629e-01 -1.406578570604324341e-01 -7.660143077373504639e-03
2.744250297546386719e-01 1.639129668474197388e-01 1.224022880196571350e-01
-3.594793677330017090e-01 1.483598053455352783e-01 2.138293385505676270e-01
7.619978189468383789e-01 1.009450852870941162e-01 -4.849090240895748138e-03
-3.761266171932220459e-01 -1.084805577993392944e-01 2.922498881816864014e-01
6.175066232681274414e-01 7.034896314144134521e-02 -2.667837142944335938e-01
-5.642372369766235352e-01 1.510069966316223145e-01 7.393804192543029785e-02
-1.373975425958633423e-01 1.811969727277755737e-01 5.942975357174873352e-02
-2.187662124633789062e-01 -9.139702469110488892e-02 3.584506213665008545e-01
-4.856310486793518066e-01 1.625948399305343628e-01 3.411289677023887634e-02
-8.386095166206359863e-01 8.638212829828262329e-02 -5.504796653985977173e-02
-3.485440611839294434e-01 -1.591124981641769409e-01 8.101709932088851929e-02
4.020833075046539307e-01 1.285352855920791626e-01 -2.253946959972381592e-01
-7.188543677330017090e-02 1.652801185846328735e-01 -1.772682666778564453e-01
-7.190862298011779785e-01 1.077553406357765198e-01 -1.347571462392807007e-01
3.089438676834106445e-01 -1.712861359119415283e-01 1.170660033822059631e-01
2.666886150836944580e-01 -1.495527178049087524e-01 2.385887205600738525e-01
-6.397655010223388672e-01 -2.176338061690330505e-02 -2.784899771213531494e-01
-8.212575316429138184e-02 6.244081631302833557e-02 -3.874984085559844971e-01
2.956825494766235352e-01 1.672811657190322876e-01 7.500411570072174072e-02
9.573674201965332031e-01 -2.763187512755393982e-02 4.198183864355087280e-02
-5.290197730064392090e-01 -7.070198655128479004e-02 3.075442910194396973e-01
-2.619904279708862305e-01 -5.195995792746543884e-02 3.955213129520416260e-01
4.550259411334991455e-01 -1.127527430653572083e-01 -2.715637683868408203e-01
-2.998298704624176025e-01 -1.612368673086166382e-01 -7.260719686746597290e-02
8.347764611244201660e-02 -1.207538098096847534e-01 3.291147351264953613e-01
3.121397793292999268e-01 1.080284640192985535e-01 -3.014440536499023438e-01
-2.658818066120147705e-01 -1.684366911649703979e-01 1.473723538219928741e-02
-4.515972733497619629e-01 2.896521985530853271e-02 -3.511082231998443604e-01
2.295485883951187134e-01 -1.763616651296615601e-01 -7.006383687257766724e-02
2.207902669906616211e-01 -2.299122884869575500e-02 -4.008269906044006348e-01
-2.101789563894271851e-01 -5.788450315594673157e-02 -3.702378571033477783e-01
-6.094855666160583496e-01 -1.151285246014595032e-01 -1.032917797565460205e-01
4.225459396839141846e-01 1.517466008663177490e-01 -1.069156900048255920e-01
3.033511340618133545e-01 -1.207894533872604370e-01 3.094663918018341064e-01
5.720053315162658691e-01 -2.144036255776882172e-02 3.474442362785339355e-01
5.448904633522033691e-02 -1.388641893863677979e-01 -2.582481801509857178e-01
6.047052741050720215e-01 -1.420223712921142578e-01 1.286191344261169434e-01
6.296651363372802734e-01 -6.165606155991554260e-02 -2.911706268787384033e-01
2.122860103845596313e-01 4.943010956048965454e-02 4.026231467723846436e-01
-7.549363970756530762e-01 7.944014668464660645e-02 2.038583606481552124e-01
8.246487975120544434e-01 -1.012449488043785095e-01 -7.073190808296203613e-02
3.452646732330322266e-01 -2.294413000345230103e-02 -3.859501481056213379e-01
3.338466584682464600e-01 3.593505918979644775e-02 -3.806773126125335693e-01
-5.795578360557556152e-01 -1.011840552091598511e-01 -1.835528463125228882e-01
-1.161552518606185913e-01 1.790835857391357422e-01 -8.111657947301864624e-02
4.814421236515045166e-01 1.106988638639450073e-01 2.502105236053466797e-01
-2.908776998519897461e-01 5.947193503379821777e-02 -3.689169883728027344e-01
2.372190505266189575e-01 1.732027530670166016e-01 -3.879289329051971436e-02
-5.190876722335815430e-01 -1.155250594019889832e-01 -1.750089526176452637e-01
7.240363359451293945e-01 5.619525536894798279e-02 -2.315837442874908447e-01
3.481425344944000244e-01 -9.900300949811935425e-02 -3.192231059074401855e-01
4.293270409107208252e-01 1.572000235319137573e-01 3.556651622056961060e-02
-2.716636657714843750e-01 -1.274087727069854736e-01 -2.423481345176696777e-01
-1.099516302347183228e-01 1.671212911605834961e-01 -1.662918776273727417e-01
-6.784060001373291016e-01 1.316284686326980591e-01 8.136545121669769287e-02
9.177827239036560059e-01 -6.982735544443130493e-02 1.120258774608373642e-02
-7.501944899559020996e-01 -2.456516027450561523e-02 -2.146385759115219116e-01
8.090555071830749512e-01 -1.019505560398101807e-01 1.073831394314765930e-01
-1.399617195129394531e-01 8.421871811151504517e-02 3.806368112564086914e-01
-6.990464404225349426e-03 -1.472408175468444824e-01 2.597859501838684082e-01
-7.713261842727661133e-01 1.678925007581710815e-02 -2.179519683122634888e-01
6.896942853927612305e-01 1.177390292286872864e-01 1.556038018316030502e-02
-4.069325625896453857e-01 -1.532024145126342773e-01 -4.084534943103790283e-02
-4.699533283710479736e-01 8.455383777618408203e-02 -3.051755130290985107e-01
-1.004609018564224243e-01 -1.546363085508346558e-01 -1.903979331254959106e-01
-8.271030783653259277e-01 8.902824670076370239e-02 -6.630228459835052490e-02
6.770458817481994629e-01 1.121049523353576660e-01 1.082419306039810181e-01
-8.495504856109619141e-01 8.421976864337921143e-02 -3.880576416850090027e-02
-6.121324300765991211e-01 1.419144719839096069e-01 -7.307523488998413086e-02
-3.472298681735992432e-01 1.335424333810806274e-01 -2.465140819549560547e-01
-4.146503210067749023e-01 -1.824283786118030548e-02 -3.571673333644866943e-01
9.336113929748535156e-02 1.334560066461563110e-01 -2.786429524421691895e-01
-2.263331785798072815e-02 -1.286550313234329224e-01 -2.807971835136413574e-01
6.303209662437438965e-01 1.069590914994478226e-02 -3.138095140457153320e-01
-1.858076751232147217e-01 -1.737861931324005127e-01 2.558920159935951233e-02
-4.704544842243194580e-01 -1.345577239990234375e-01 1.627266407012939453e-01
-3.209968805313110352e-01 1.221020296216011047e-01 2.975755333900451660e-01
1.862191855907440186e-01 -1.255100816488265991e-01 3.140098750591278076e-01
-2.828249633312225342e-01 1.722462624311447144e-01 -9.655465930700302124e-02
-2.904598116874694824e-01 -1.660726666450500488e-01 -1.008470170199871063e-02
-7.363408803939819336e-01 -5.687935277819633484e-02 -1.802963018417358398e-01
5.443425774574279785e-01 1.326062232255935669e-01 1.314630806446075439e-01
3.614238500595092773e-01 1.160242557525634766e-01 2.796406447887420654e-01
-4.946902394294738770e-01 1.177761405706405640e-01 -2.395536452531814575e-01
2.588435113430023193e-01 -8.983808755874633789e-02 -3.446719944477081299e-01
2.050714753568172455e-02 6.473616510629653931e-02 -3.875253796577453613e-01
2.857820987701416016e-01 1.557280719280242920e-01 1.679665893316268921e-01
5.618796348571777344e-01 -8.077587001025676727e-03 -3.396617472171783447e-01
4.589686170220375061e-02 -1.719000488519668579e-01 1.521711945533752441e-01
-5.406651496887207031e-01 -4.439681768417358398e-02 3.336687982082366943e-01
-8.596411943435668945e-01 1.424694806337356567e-02 -1.428100615739822388e-01
-7.460389137268066406e-01 7.986460626125335693e-02 -1.823374330997467041e-01
-3.524757921695709229e-01 1.741596758365631104e-01 3.926280885934829712e-03
5.150192379951477051e-01 9.946337342262268066e-02 -2.571834027767181396e-01
-2.526537477970123291e-01 1.372542884200811386e-02 -3.927975296974182129e-01
5.712009072303771973e-01 1.382708996534347534e-01 4.148490354418754578e-02
1.297989189624786377e-01 -1.538652777671813965e-01 -2.101751267910003662e-01
2.899386286735534668e-01 1.390938609838485718e-01 2.353958934545516968e-01
-1.849397271871566772e-01 -8.399831503629684448e-02 -3.444916903972625732e-01
-9.869280457496643066e-02 8.932372182607650757e-02 -3.596848249435424805e-01
-4.880047440528869629e-01 4.454078897833824158e-02 3.605065047740936279e-01
-4.339797198772430420e-01 1.578336060047149658e-01 1.386795789003372192e-01
1.759869307279586792e-01 4.427216202020645142e-02 4.100952744483947754e-01
-3.394609391689300537e-01 1.709581315517425537e-01 -7.763942331075668335e-02
-5.331709384918212891e-01 1.295750141143798828e-01 2.118420451879501343e-01
-1.512482315301895142e-01 -9.197999536991119385e-02 3.664952218532562256e-01
2.350386083126068115e-01 1.155366972088813782e-01 -3.012169301509857178e-01
-6.404035091400146484e-01 9.657014161348342896e-02 -2.183894962072372437e-01
-2.293261438608169556e-01 -1.221595406532287598e-01 2.985467910766601562e-01
2.885112762451171875e-01 -1.724252551794052124e-01 -8.858416229486465454e-02
6.429512798786163330e-02 -1.818336844444274902e-01 2.160330861806869507e-02
1.961057484149932861e-01 1.622978150844573975e-01 -1.585252881050109863e-01
3.636933863162994385e-01 -1.670627743005752563e-01 1.261732876300811768e-01
-5.738174915313720703e-01 2.586236968636512756e-02 -3.141826689243316650e-01
8.737190365791320801e-01 4.171625152230262756e-02 1.289927810430526733e-01
-3.446362018585205078e-01 1.722838282585144043e-01 7.313375920057296753e-02
-6.920099258422851562e-02 -1.257571280002593994e-01 -2.835761904716491699e-01
2.404095977544784546e-01 -1.646971702575683594e-01 1.795756816864013672e-01
8.775621056556701660e-01 5.738881230354309082e-02 6.607273966073989868e-02
-7.906447649002075195e-01 6.795129925012588501e-02 1.953605115413665771e-01
8.047193884849548340e-01 -9.426327049732208252e-02 -1.292358338832855225e-01
3.595971688628196716e-02 1.812161207199096680e-01 -4.202893003821372986e-02
4.660381376743316650e-01 -1.256627887487411499e-01 -2.383915483951568604e-01
4.463893175125122070e-02 1.640883386135101318e-01 -1.787551790475845337e-01
6.804127693176269531e-01 -1.239158436655998230e-01 1.535647809505462646e-01
-8.435101509094238281e-01 -5.532145872712135315e-02 -4.985709860920906067e-02
2.316129058599472046e-01 -7.045197486877441406e-02 3.911656141281127930e-01
-5.560275912284851074e-01 -8.459402015432715416e-04 -3.207516968250274658e-01
1.587178409099578857e-01 -1.711605191230773926e-01 1.544182300567626953e-01
3.299377858638763428e-01 1.304658353328704834e-01 -2.436424791812896729e-01
-3.720848560333251953e-01 -1.870859996415674686e-03 3.980969786643981934e-01
1.550940126180648804e-01 -9.384543448686599731e-02 3.710654079914093018e-01
-8.532218933105468750e-01 -5.483962222933769226e-02 -2.123953029513359070e-02
6.341010332107543945e-01 -1.013308763504028320e-01 2.472648471593856812e-01
6.535893678665161133e-01 8.426519483327865601e-02 2.267830967903137207e-01
-5.866041779518127441e-01 7.587175071239471436e-02 -2.753441929817199707e-01
9.510526657104492188e-01 -2.820402570068836212e-02 6.472761929035186768e-02
7.070658206939697266e-01 -1.346832811832427979e-01 -1.345603726804256439e-02
-2.004050612449645996e-01 1.338598281145095825e-01 2.877851724624633789e-01
3.531095385551452637e-01 1.560711264610290527e-01 -1.264890283346176147e-01
7.261478900909423828e-01 -1.117422059178352356e-01 -1.450454592704772949e-01
-7.014399170875549316e-01 -3.726759180426597595e-02 2.671546936035156250e-01
-7.426668703556060791e-02 1.184071227908134460e-01 3.296878039836883545e-01
-3.896996676921844482e-01 3.090773336589336395e-02 3.901067674160003662e-01
-6.090031862258911133e-01 1.436266303062438965e-01 8.327821642160415649e-02
6.176277399063110352e-01 9.799493104219436646e-02 -2.099342346191406250e-01
-1.529110819101333618e-01 1.802942603826522827e-01 -5.829425156116485596e-02
-4.609802663326263428e-01 1.418861299753189087e-01 -1.827387064695358276e-01
-4.631419107317924500e-02 1.338101271539926529e-02 4.310730099678039551e-01
1.107401251792907715e-01 -1.424045413732528687e-01 2.762272059917449951e-01
-4.874564409255981445e-01 -6.745980679988861084e-02 3.270656466484069824e-01
2.302429378032684326e-01 1.741366833448410034e-01 3.065124899148941040e-02
2.684981822967529297e-01 5.005086585879325867e-02 3.946597278118133545e-01
-7.314868569374084473e-01 1.227363348007202148e-01 5.323651060461997986e-02
-7.823653817176818848e-01 -6.952740997076034546e-02 -9.972205758094787598e-02
-6.742780804634094238e-01 1.164879947900772095e-01 -1.438183784484863281e-01
2.285563349723815918e-01 6.552772969007492065e-02 -3.739175498485565186e-01
-3.338831365108489990e-01 -1.564931869506835938e-01 -8.745200186967849731e-02
7.007332444190979004e-01 -1.004646867513656616e-01 2.120094895362854004e-01
7.441049814224243164e-01 -6.640081852674484253e-02 -2.318453341722488403e-01
1.155375503003597260e-02 6.544502079486846924e-02 4.031574130058288574e-01
-5.869529247283935547e-01 -1.234323531389236450e-01 1.154386997222900391e-01
7.525589317083358765e-02 1.742215156555175781e-01 -1.130565851926803589e-01
-6.317746639251708984e-01 -6.168159097433090210e-02 -2.398888766765594482e-01
5.427446961402893066e-01 4.363043606281280518e-02 3.351329565048217773e-01
6.603593230247497559e-01 -1.214780136942863464e-01 1.784481257200241089e-01
2.590852677822113037e-01 -1.778963953256607056e-01 6.294970214366912842e-02
5.241970419883728027e-01 -1.496266126632690430e-01 1.465925276279449463e-01
-8.172515630722045898e-01 9.314687550067901611e-02 -6.492404639720916748e-02
3.419398330152034760e-03 -1.653640270233154297e-01 -1.563019454479217529e-01
-4.427855834364891052e-03 -1.719078421592712402e-01 1.471684575080871582e-01
4.938835799694061279e-01 -5.377558618783950806e-02 -3.406149148941040039e-01
-4.549432173371315002e-02 3.760126605629920959e-02 4.228565990924835205e-01
3.198323845863342285e-01 1.101741418242454529e-01 3.038587868213653564e-01
6.273916959762573242e-01 6.299969553947448730e-02 2.794699668884277344e-01
-4.851871132850646973e-01 -1.455010622739791870e-01 1.607877574861049652e-02
-6.991218030452728271e-02 -1.783153414726257324e-01 -2.376269176602363586e-02
5.692416429519653320e-01 1.016766652464866638e-01 -2.271447032690048218e-01
-3.590048849582672119e-01 -1.545247733592987061e-01 -8.291844278573989868e-02
3.653129935264587402e-01 -1.474188119173049927e-01 -2.000515162944793701e-01
5.669076442718505859e-01 -1.491416841745376587e-01 -9.547127783298492432e-02
1.335216462612152100e-01 8.818499743938446045e-02 3.708645999431610107e-01
3.513232171535491943e-01 -6.833869963884353638e-02 -3.571889400482177734e-01
1.842610351741313934e-02 1.734412163496017456e-01 -1.279981732368469238e-01
-8.193942904472351074e-01 -6.165822222828865051e-02 1.093625277280807495e-01
9.531562030315399170e-02 1.218352988362312317e-01 -3.051479756832122803e-01
8.793728351593017578e-01 -8.538728952407836914e-02 5.442109704017639160e-02
-8.470902442932128906e-01 8.713589608669281006e-02 -2.330823242664337158e-02
7.864211797714233398e-01 9.332222491502761841e-02 3.470448404550552368e-02
2.275691926479339600e-01 -1.441546678543090820e-01 2.618813216686248779e-01
-2.420956343412399292e-01 -1.614177823066711426e-01 -1.097350716590881348e-01
2.553378939628601074e-01 1.610686331987380981e-01 1.507990956306457520e-01
-3.462992310523986816e-01 -1.436415314674377441e-01 1.928455084562301636e-01
-1.921351104974746704e-01 -1.371020674705505371e-01 2.661334276199340820e-01
5.157345533370971680e-01 -1.270269155502319336e-01 2.378856837749481201e-01
8.544605970382690430e-01 3.751640394330024719e-02 1.609863340854644775e-01
3.593006134033203125e-01 -8.266350626945495605e-02 -3.401899635791778564e-01
5.065206289291381836e-01 1.375830024480819702e-01 -1.315648406744003296e-01
4.965224564075469971e-01 8.532010763883590698e-02 -2.910536527633666992e-01
-8.349601030349731445e-01 -2.358971163630485535e-02 -1.440539956092834473e-01
3.738917708396911621e-01 -1.409631371498107910e-01 -2.199213504791259766e-01
-5.922639369964599609e-01 -1.164612472057342529e-01 -1.143705546855926514e-01
5.527616143226623535e-01 1.102338731288909912e-01 2.169974297285079956e-01
5.906966924667358398e-01 1.307989507913589478e-01 9.231970459222793579e-02
1.145314127206802368e-01 -1.814402043819427490e-01 4.576910659670829773e-02
-1.712888628244400024e-01 1.733268052339553833e-01 1.340542137622833252e-01
7.238405197858810425e-02 -1.799254715442657471e-01 7.744140177965164185e-02
-7.772485613822937012e-01 -7.013378292322158813e-02 1.420138478279113770e-01
-1.925770640373229980e-01 1.791271567344665527e-01 -6.119761615991592407e-02
3.056643307209014893e-01 1.564893573522567749e-01 -1.492757350206375122e-01
4.733257591724395752e-01 -1.623166203498840332e-01 -6.898073107004165649e-02
4.257701337337493896e-01 -7.708861678838729858e-02 3.528764247894287109e-01
4.636154174804687500e-01 1.164788231253623962e-01 -2.365081161260604858e-01
-8.901575207710266113e-01 6.398627907037734985e-02 -2.708885818719863892e-02
-5.792761221528053284e-02 1.696326881647109985e-01 -1.550372838973999023e-01
1.166996061801910400e-01 1.526254117488861084e-01 -2.179347127676010132e-01
-8.518150448799133301e-01 -5.753667280077934265e-02 1.175556611269712448e-02
-4.160392582416534424e-01 -3.200282901525497437e-02 3.790345788002014160e-01
-8.355035781860351562e-01 -2.993041276931762695e-02 -1.342797577381134033e-01
8.451544046401977539e-01 5.242199450731277466e-02 -1.364239603281021118e-01
3.071083128452301025e-01 -1.735076010227203369e-01 -6.973977386951446533e-02
-6.942522525787353516e-01 1.301074177026748657e-01 6.378183513879776001e-02
3.387540876865386963e-01 1.642893999814987183e-01 6.794197112321853638e-02
-8.363634943962097168e-01 -6.393416970968246460e-02 -2.066232264041900635e-05
-2.048054784536361694e-01 -1.699695736169815063e-01 -5.425664037466049194e-02
3.402305394411087036e-02 -1.815239787101745605e-01 2.442681416869163513e-02
2.100666984915733337e-02 1.633977591991424561e-01 1.937978416681289673e-01
7.088244557380676270e-01 -9.960481896996498108e-03 2.934631109237670898e-01
4.861229658126831055e-01 -5.407719686627388000e-02 3.585076332092285156e-01
7.288254499435424805e-01 -1.027328148484230042e-01 -1.714328527450561523e-01
3.982084691524505615e-01 -8.987345546483993530e-02 -3.236432671546936035e-01
-1.326847076416015625e-01 -1.968655735254287720e-02 4.259606003761291504e-01
-7.610632777214050293e-01 1.111648902297019958e-01 9.156495332717895508e-02
5.237792134284973145e-01 6.612729281187057495e-02 -3.094696104526519775e-01
-3.808946013450622559e-01 -1.238901093602180481e-01 -2.163021564483642578e-01
6.014126539230346680e-01 6.450947374105453491e-02 -2.823472023010253906e-01
3.418017029762268066e-01 -7.255230844020843506e-02 3.741248548030853271e-01
4.111795127391815186e-01 1.539976447820663452e-01 1.027727648615837097e-01
-5.457589626312255859e-01 -1.248759701848030090e-01 -1.146629154682159424e-01
9.198005497455596924e-02 -6.820435822010040283e-02 4.026567935943603516e-01
1.054237782955169678e-01 1.440094858407974243e-01 -2.482366561889648438e-01
-6.295472383499145508e-01 4.351888224482536316e-02 3.133419454097747803e-01
2.010627239942550659e-01 -1.314969360828399658e-01 -2.732698917388916016e-01
-1.712862998247146606e-01 1.682111918926239014e-01 -1.536801904439926147e-01
1.614416986703872681e-01 -1.210017725825309753e-01 -2.996946871280670166e-01
-5.751801654696464539e-02 2.668432891368865967e-02 4.272878766059875488e-01
3.836819902062416077e-02 1.684474945068359375e-02 4.302531480789184570e-01
-6.977289915084838867e-01 -9.759323298931121826e-02 1.276424229145050049e-01
-1.938189566135406494e-01 -1.511551141738891602e-01 -1.829127669334411621e-01
-6.023772954940795898e-01 -1.269026994705200195e-01 2.965112775564193726e-02
-1.459394097328186035e-01 1.815052032470703125e-01 5.070666223764419556e-02
1.976197212934494019e-01 1.743470877408981323e-01 -5.959070473909378052e-02
-3.468570411205291748e-01 1.051718834787607193e-02 -3.773753345012664795e-01
-9.941102564334869385e-02 1.767385601997375488e-01 1.161518022418022156e-01
-7.710310816764831543e-01 1.072772145271301270e-01 9.834357351064682007e-02
-7.482642531394958496e-01 -8.358899503946304321e-02 -8.866954594850540161e-02
9.303294420242309570e-01 -5.981934070587158203e-02 -2.852993458509445190e-02
-6.304422020912170410e-02 -1.793704926967620850e-01 1.364669669419527054e-02
-3.879261016845703125e-01 -5.792034044861793518e-02 -3.356179893016815186e-01
8.583375215530395508e-01 7.056879252195358276e-02 -1.914686523377895355e-03
1.811571419239044189e-02 1.550223529338836670e-01 2.290091067552566528e-01
1.147574465721845627e-02 -6.724922358989715576e-02 -3.797303140163421631e-01
-3.525942936539649963e-02 1.681936085224151611e-01 -1.628252565860748291e-01
1.955054849386215210e-01 -1.777935028076171875e-01 9.181046485900878906e-02
-8.605329394340515137e-01 -2.772523090243339539e-03 1.704762279987335205e-01
-6.328058242797851562e-01 -2.289738971740007401e-03 3.212080001831054688e-01
8.371160924434661865e-02 7.720938324928283691e-02 -3.740115463733673096e-01
7.462458014488220215e-01 -8.534815162420272827e-03 -2.649654150009155273e-01
1.011369526386260986e-01 -1.805153340101242065e-01 6.814286112785339355e-02
6.417896747589111328e-01 -9.670437127351760864e-02 2.526284456253051758e-01
3.338275849819183350e-01 -1.725478470325469971e-01 9.184042364358901978e-02
-4.529033228754997253e-02 -1.188511699438095093e-01 -3.010535836219787598e-01
-9.108992218971252441e-01 -2.026199363172054291e-02 2.646766789257526398e-02
-2.822521626949310303e-01 1.651386767625808716e-01 -1.453751027584075928e-01
3.952769935131072998e-01 -3.776085749268531799e-02 3.884397447109222412e-01
2.622437477111816406e-01 5.891574919223785400e-02 3.881310224533081055e-01
1.994701027870178223e-01 -1.807590574026107788e-01 2.745905704796314240e-02
-2.698606848716735840e-01 1.077728495001792908e-01 3.339465260505676270e-01
-7.341213822364807129e-01 -6.670651584863662720e-02 1.974759697914123535e-01
-8.131878972053527832e-01 -1.387080922722816467e-02 -1.752507686614990234e-01
-6.113059520721435547e-01 -5.772216245532035828e-02 2.902079224586486816e-01
7.955030202865600586e-01 -9.184072911739349365e-02 -1.460830569267272949e-01
1.351220756769180298e-01 1.273076385259628296e-01 2.996469736099243164e-01
4.613851904869079590e-01 9.073615074157714844e-02 3.008398115634918213e-01
3.634842336177825928e-01 1.317025274038314819e-01 -2.293321937322616577e-01
3.168079257011413574e-01 -1.233947351574897766e-01 3.015910983085632324e-01
2.406118623912334442e-02 -1.479026377201080322e-01 -2.296611964702606201e-01
6.833903789520263672e-01 -1.130786314606666565e-01 1.898176521062850952e-01
-5.489783883094787598e-01 -9.711481630802154541e-02 -2.127570658922195435e-01
7.527968883514404297e-01 -1.135765984654426575e-01 -1.113473623991012573e-01
-2.723292112350463867e-01 -9.450164437294006348e-02 3.444117605686187744e-01
-6.907755136489868164e-02 -1.392970047891139984e-02 4.305566847324371338e-01
7.997795939445495605e-01 -9.053039550781250000e-02 1.591315567493438721e-01
6.287769973278045654e-02 1.259875297546386719e-01 -2.984121441841125488e-01
7.908446788787841797e-01 5.755311995744705200e-02 -1.805719137191772461e-01
-4.705616533756256104e-01 -1.745859719812870026e-02 3.718469142913818359e-01
6.379485130310058594e-01 -1.431508511304855347e-01 -6.255285441875457764e-02
-5.989747047424316406e-01 1.642716862261295319e-02 -3.061129450798034668e-01
-3.903971612453460693e-01 -1.369936671108007431e-02 3.922628760337829590e-01
-5.088582634925842285e-01 -8.350217342376708984e-02 -2.608785629272460938e-01
2.722619473934173584e-01 1.513777226209640503e-01 1.939563304185867310e-01
8.983131647109985352e-01 -2.532368339598178864e-02 -1.481506526470184326e-01
2.593510150909423828e-01 -1.568499058485031128e-01 -1.859686821699142456e-01
-5.714675188064575195e-01 1.514278650283813477e-01 -3.401641547679901123e-02
-3.196104615926742554e-02 -1.717379093170166016e-01 -1.119177266955375671e-01
4.381869733333587646e-01 1.138951629400253296e-01 -2.530180513858795166e-01
-4.525970220565795898e-01 -1.149357482790946960e-01 -2.123262882232666016e-01
-3.349857330322265625e-01 -1.514855623245239258e-01 -1.221536099910736084e-01
-8.283904194831848145e-02 -1.300416588783264160e-01 3.018250465393066406e-01
-2.098462730646133423e-01 1.795314401388168335e-01 -4.657803475856781006e-02
-4.919126033782958984e-01 -1.240422949194908142e-01 -1.599462330341339111e-01
8.586199283599853516e-01 6.912215054035186768e-02 -3.349596634507179260e-02
-7.900918126106262207e-01 8.208807557821273804e-02 -1.394391655921936035e-01
-4.631283581256866455e-01 1.492520421743392944e-01 1.694642305374145508e-01
-8.969610929489135742e-01 -1.660815626382827759e-02 9.927729517221450806e-02
-1.503468304872512817e-02 1.203670725226402283e-01 3.256520032882690430e-01
-3.215832710266113281e-01 8.864897489547729492e-02 3.550749421119689941e-01
6.783294677734375000e-01 4.170213639736175537e-02 2.811317443847656250e-01
-4.060850143432617188e-01 -7.924726232886314392e-03 3.901977539062500000e-01
8.591701090335845947e-02 -8.155057579278945923e-02 3.893098235130310059e-01
3.807918354868888855e-02 -1.075793281197547913e-01 3.536255359649658203e-01
-5.590647459030151367e-01 -1.328554898500442505e-01 6.884109228849411011e-02
-3.775998950004577637e-01 -1.574286073446273804e-01 5.973549932241439819e-02
8.514603376388549805e-01 6.480210274457931519e-02 -8.472822606563568115e-02
3.098957538604736328e-01 1.687840223312377930e-01 2.278123237192630768e-02
4.953298866748809814e-01 -1.611075699329376221e-01 8.223558962345123291e-02
-2.589124143123626709e-01 -1.217983514070510864e-01 -2.605179250240325928e-01
-2.592053413391113281e-01 1.535631120204925537e-01 -2.036542743444442749e-01
2.275828272104263306e-01 -1.258977502584457397e-01 3.090743124485015869e-01
-5.472673773765563965e-01 8.817309141159057617e-02 -2.745151221752166748e-01
-3.930246531963348389e-01 -1.564858257770538330e-01 4.009658098220825195e-02
7.343767583370208740e-02 -1.646309196949005127e-01 -1.646383255720138550e-01
-2.226006388664245605e-01 1.419321149587631226e-01 -2.481198012828826904e-01
3.496437668800354004e-01 5.827534571290016174e-02 3.733296096324920654e-01
-6.339062452316284180e-01 -9.709600359201431274e-02 -1.575439125299453735e-01
5.186910629272460938e-01 1.465193629264831543e-01 2.729094028472900391e-02
5.585492849349975586e-01 -1.478635668754577637e-01 1.320472061634063721e-01
5.529168844223022461e-01 -2.360428869724273682e-02 3.531437814235687256e-01
-1.671153679490089417e-02 1.609331667423248291e-01 -1.967317014932632446e-01
-8.116019889712333679e-03 -1.872820965945720673e-02 -4.090893268585205078e-01
4.034960269927978516e-01 1.132068783044815063e-01 2.732319533824920654e-01
-6.169263646006584167e-02 -1.647377908229827881e-01 1.820358037948608398e-01
-7.169061899185180664e-01 3.843575343489646912e-02 -2.452868223190307617e-01
8.156429529190063477e-01 -1.061274036765098572e-01 -5.572722852230072021e-02
-1.266854815185070038e-02 -1.067579686641693115e-01 -3.263332545757293701e-01
-7.379559278488159180e-01 1.055211499333381653e-01 -1.238472759723663330e-01
-3.286080360412597656e-01 -1.625212728977203369e-01 5.286942049860954285e-02
-4.279463589191436768e-01 1.677399128675460815e-01 -2.695998549461364746e-02
-8.837867975234985352e-01 6.662961840629577637e-02 6.638906151056289673e-02
4.397628605365753174e-01 2.021658234298229218e-02 -3.671280741691589355e-01
5.508987903594970703e-01 -1.053172200918197632e-01 2.750902175903320312e-01
-2.448268085718154907e-01 1.556892395019531250e-01 -1.984058171510696411e-01
1.927489191293716431e-01 1.172586232423782349e-01 3.141258955001831055e-01
1.994211375713348389e-01 -1.023362204432487488e-01 3.554654717445373535e-01
-2.373945862054824829e-01 -2.730371244251728058e-02 -3.872092068195343018e-01
1.192326191812753677e-02 -1.811404377222061157e-01 2.507029566913843155e-03
-1.169318407773971558e-01 -1.133414879441261292e-01 3.346386849880218506e-01
8.731527626514434814e-02 1.425603926181793213e-01 2.644842863082885742e-01
6.110827326774597168e-01 1.204412877559661865e-01 -1.328947693109512329e-01
9.304723143577575684e-02 1.656256169080734253e-01 -1.646463423967361450e-01
6.241089701652526855e-01 -5.042328312993049622e-02 3.167040646076202393e-01
6.072691679000854492e-01 8.681440353393554688e-02 2.472892403602600098e-01
4.579142928123474121e-01 1.369135677814483643e-01 -1.682480573654174805e-01
6.826426386833190918e-01 1.119173690676689148e-01 -9.925155341625213623e-02
-4.505033791065216064e-01 -1.459256857633590698e-01 1.018200516700744629e-01
-7.990032434463500977e-01 2.896405197679996490e-02 2.271242588758468628e-01
1.231213063001632690e-01 1.250770986080169678e-01 3.063063025474548340e-01
-5.183826684951782227e-01 1.417663097381591797e-01 1.737388223409652710e-01
-1.593498587608337402e-01 1.416411399841308594e-01 -2.566357254981994629e-01
-2.658034265041351318e-01 -1.084265932440757751e-01 3.208723366260528564e-01
5.145523548126220703e-01 1.463625431060791016e-01 -4.169890284538269043e-02
6.000428795814514160e-01 1.322619169950485229e-01 6.189031526446342468e-02
-7.814830541610717773e-01 -8.196008950471878052e-02 6.772389262914657593e-02
-4.763343334197998047e-01 -9.041263908147811890e-02 2.948830425739288330e-01
-6.747257113456726074e-01 -1.088248789310455322e-01 8.812144398689270020e-02
3.775286078453063965e-01 -5.277154501527547836e-03 -3.834373354911804199e-01
1.847635209560394287e-01 -9.448926150798797607e-02 3.680890202522277832e-01
-6.392605602741241455e-02 -1.735107153654098511e-01 -8.966466784477233887e-02
-2.104674726724624634e-01 -8.822276443243026733e-02 -3.346954584121704102e-01
-5.399932265281677246e-01 1.259966343641281128e-01 2.197985500097274780e-01
8.329727649688720703e-01 7.584061473608016968e-02 -6.113731861114501953e-02
7.010962963104248047e-01 -1.348384767770767212e-01 -3.345054760575294495e-02
6.848849654197692871e-01 4.257078841328620911e-02 -2.700783610343933105e-01
-3.591977953910827637e-01 -1.563708186149597168e-01 1.014225706458091736e-01
1.194182038307189941e-01 -3.758842870593070984e-02 -4.010033011436462402e-01
9.162685275077819824e-01 4.215512424707412720e-02 2.569088153541088104e-02
-3.716177046298980713e-01 1.626672446727752686e-01 1.411117017269134521e-01
5.995281338691711426e-01 -1.405079662799835205e-01 1.416073292493820190e-01
8.744794726371765137e-01 4.938703030347824097e-02 -1.033083274960517883e-01
-1.928096637129783630e-03 -1.763629615306854248e-01 -7.864224165678024292e-02
-4.982868432998657227e-01 1.615159213542938232e-01 2.266415022313594818e-02
-4.427585899829864502e-01 -7.520245760679244995e-02 3.310274481773376465e-01
-2.750228345394134521e-01 -1.602132767438888550e-01 -9.963875263929367065e-02
4.722333550453186035e-01 -1.442312598228454590e-01 1.988952457904815674e-01
5.787055492401123047e-01 -9.468489885330200195e-02 2.836018204689025879e-01
2.267818301916122437e-01 -1.733595579862594604e-01 1.271137595176696777e-01
-5.872776508331298828e-01 1.466435343027114868e-01 -6.535279750823974609e-02
-4.662653803825378418e-01 1.639760434627532959e-01 -3.136095777153968811e-02
-3.447125852108001709e-01 1.656545251607894897e-01 -1.183934956789016724e-01
3.274306654930114746e-01 2.396252006292343140e-03 4.065805077552795410e-01
3.008838295936584473e-01 1.010960415005683899e-01 3.257584273815155029e-01
-9.268853068351745605e-02 1.818662881851196289e-01 5.593849346041679382e-02
-1.246696710586547852e-02 6.500213593244552612e-02 4.038801491260528564e-01
3.035881221294403076e-01 -2.232996746897697449e-02 4.091346561908721924e-01
-8.321413397789001465e-01 9.385098516941070557e-02 4.248740524053573608e-02
2.361761964857578278e-02 1.532297432422637939e-01 -2.248308956623077393e-01
8.224186301231384277e-01 -1.065771803259849548e-01 -3.082601353526115417e-02
-2.519144713878631592e-01 1.303230226039886475e-01 -2.738359272480010986e-01
7.311980724334716797e-01 9.770724177360534668e-02 1.172131150960922241e-01
-7.132707834243774414e-01 -1.007459014654159546e-01 -3.768112882971763611e-02
6.197422146797180176e-01 -2.943215891718864441e-02 -3.162827789783477783e-01
3.817830085754394531e-01 7.245657593011856079e-02 3.507306277751922607e-01
-4.081227183341979980e-01 -5.240957066416740417e-02 3.662895858287811279e-01
-3.932303190231323242e-01 -8.239554613828659058e-02 3.349989056587219238e-01
-9.139920771121978760e-02 -8.901320397853851318e-02 3.760875463485717773e-01
6.034775972366333008e-01 5.883178487420082092e-02 2.958672046661376953e-01
-8.203831911087036133e-01 9.886847436428070068e-02 1.286718994379043579e-03
5.558773875236511230e-01 8.938107639551162720e-02 2.668035328388214111e-01
-7.176734507083892822e-02 1.255097705870866776e-02 -4.096689522266387939e-01
3.585893213748931885e-01 3.723363205790519714e-02 -3.757139742374420166e-01
5.281729698181152344e-01 -2.853752672672271729e-02 -3.455037474632263184e-01
9.187394380569458008e-01 3.207873925566673279e-02 7.407215237617492676e-02
-3.758742213249206543e-01 -1.479352414608001709e-01 1.536169052124023438e-01
7.316641211509704590e-01 8.658357709646224976e-02 1.618188023567199707e-01
-4.350617527961730957e-01 -1.355567723512649536e-01 -1.456656605005264282e-01
6.682937145233154297e-01 1.191832423210144043e-01 6.695394963026046753e-02
6.898543238639831543e-02 1.567667424678802490e-01 -2.080135792493820190e-01
3.596393018960952759e-02 -1.511184573173522949e-01 2.488988935947418213e-01
4.999991059303283691e-01 -6.421604007482528687e-02 -3.301958143711090088e-01
2.874145209789276123e-01 -1.680023968219757080e-01 1.491252183914184570e-01
7.124092578887939453e-01 1.122258976101875305e-01 -3.031982481479644775e-02
8.369584083557128906e-01 4.968490451574325562e-02 1.561482995748519897e-01
2.460797727108001709e-01 4.655719269067049026e-03 -4.015939235687255859e-01
-7.989332079887390137e-01 -1.024655718356370926e-02 2.239226549863815308e-01
6.376424431800842285e-01 -1.305972635746002197e-01 -1.409045606851577759e-01
1.783579140901565552e-01 1.738952249288558960e-01 -7.852810621261596680e-02
3.187912106513977051e-01 -1.243436709046363831e-01 -2.757945060729980469e-01
8.961278200149536133e-01 -6.754537671804428101e-02 9.939070045948028564e-02
-6.184058785438537598e-01 1.428090631961822510e-01 7.629245519638061523e-02
4.731053113937377930e-01 -1.372919082641601562e-01 2.233968824148178101e-01
-1.136916577816009521e-01 -1.773943006992340088e-01 2.874580211937427521e-02
7.927711606025695801e-01 -1.149312183260917664e-01 4.466145113110542297e-02
-3.264796361327171326e-02 1.225827112793922424e-01 3.213182687759399414e-01
6.602596640586853027e-01 -7.763146609067916870e-02 2.744625508785247803e-01
5.573711991310119629e-01 -1.104687303304672241e-01 2.620398998260498047e-01
4.143223762512207031e-01 1.100705564022064209e-01 -2.701617181301116943e-01
6.166679263114929199e-01 1.002128347754478455e-01 2.086566835641860962e-01
-8.173012733459472656e-01 5.719190463423728943e-02 -1.578445583581924438e-01
4.507645368576049805e-01 5.921581387519836426e-02 -3.387405574321746826e-01
4.419501423835754395e-01 -1.158490404486656189e-01 -2.684974074363708496e-01
-1.194200068712234497e-01 -5.447430163621902466e-02 4.094631373882293701e-01
-1.467442214488983154e-01 1.599153876304626465e-01 2.088283896446228027e-01
-4.951202869415283203e-01 1.607804298400878906e-01 5.334694311022758484e-02
-4.431613087654113770e-01 -1.369702666997909546e-01 -1.332572698593139648e-01
9.406514465808868408e-02 6.771656125783920288e-02 -3.829235732555389404e-01
-6.859253346920013428e-02 1.823810338973999023e-01 4.694405198097229004e-02
-4.355437755584716797e-01 9.812998771667480469e-02 3.171716034412384033e-01
-8.990352153778076172e-01 3.798695688601583242e-04 1.182348057627677917e-01
-7.708033323287963867e-01 -8.699741959571838379e-02 4.363528266549110413e-02
5.537973046302795410e-01 -6.340800225734710693e-02 -3.156721591949462891e-01
6.960731744766235352e-01 -1.123913675546646118e-01 -1.663862466812133789e-01
6.195709109306335449e-01 4.644690454006195068e-02 -2.956665158271789551e-01
-8.976702094078063965e-01 3.156497329473495483e-02 1.187582910060882568e-01
5.756795406341552734e-01 1.380367875099182129e-01 3.089996427297592163e-02
6.737956404685974121e-01 -3.651950880885124207e-02 -2.920873761177062988e-01
4.099882245063781738e-01 -1.877175457775592804e-02 3.909272253513336182e-01
1.710851192474365234e-01 -1.656465977430343628e-01 -1.565170139074325562e-01
-5.348796248435974121e-01 -1.329416632652282715e-01 1.104005128145217896e-01
7.477768659591674805e-01 6.836641579866409302e-02 1.974179744720458984e-01
-3.721435368061065674e-01 1.476127952337265015e-01 -1.956659108400344849e-01
9.025395512580871582e-01 4.492382332682609558e-02 6.397889554500579834e-02
-2.053844556212425232e-02 1.893100887537002563e-02 4.301828742027282715e-01
-7.089374661445617676e-01 -9.677998721599578857e-02 -7.756806910037994385e-02
7.003911137580871582e-01 1.195825450122356415e-02 2.921897768974304199e-01
1.602047979831695557e-01 -1.444699428975582123e-02 4.262061715126037598e-01
3.107282221317291260e-01 -1.592187583446502686e-01 -1.649347096681594849e-01
2.201892435550689697e-02 -1.783481240272521973e-01 -6.124653667211532593e-02
2.703999280929565430e-01 1.607841253280639648e-01 1.458632797002792358e-01
7.995784282684326172e-02 1.612627059221267700e-01 -1.877989619970321655e-01
1.180782169103622437e-01 1.449502706527709961e-01 -2.438374757766723633e-01
-5.293244123458862305e-01 1.482788622379302979e-01 1.331072449684143066e-01
1.309196203947067261e-01 -1.787361353635787964e-01 -6.242708116769790649e-02
5.454912185668945312e-01 1.129866987466812134e-01 -2.080237120389938354e-01
-7.463375329971313477e-01 -6.247527897357940674e-02 1.965538114309310913e-01
4.976496994495391846e-01 1.381783634424209595e-01 1.389748156070709229e-01
1.676588952541351318e-01 1.777717620134353638e-01 -1.283884048461914062e-02
-5.427163243293762207e-01 1.533498764038085938e-01 7.941546291112899780e-02
2.906683087348937988e-01 -6.152300909161567688e-02 -3.718450367450714111e-01
-4.565854966640472412e-01 -1.333565264940261841e-01 1.784803271293640137e-01
7.423452138900756836e-01 -7.700301706790924072e-02 -2.175519466400146484e-01
8.204718828201293945e-01 7.371695339679718018e-02 1.018447279930114746e-01
-4.412765800952911377e-01 -1.488765031099319458e-01 -4.418153688311576843e-02
-1.399738490581512451e-01 -1.508018225431442261e-01 2.302314639091491699e-01
-1.271710395812988281e-01 1.808769106864929199e-01 -5.615970492362976074e-02
4.439877569675445557e-01 -9.479999542236328125e-02 3.259440064430236816e-01
7.794007658958435059e-02 1.221743002533912659e-01 3.171674907207489014e-01
6.536452770233154297e-01 3.137742355465888977e-02 -2.940201461315155029e-01
-5.213902592658996582e-01 -5.436629801988601685e-02 -2.984080314636230469e-01
1.051038205623626709e-01 -4.979559406638145447e-02 4.161547124385833740e-01
-7.404540777206420898e-01 8.387771248817443848e-02 2.060956060886383057e-01
-2.638969719409942627e-01 -1.377212107181549072e-01 2.464380711317062378e-01
4.225049912929534912e-01 -1.582327336072921753e-01 1.556385010480880737e-01
-4.015394151210784912e-01 -1.182046085596084595e-01 -2.248296886682510376e-01
8.977672457695007324e-01 5.322473868727684021e-02 5.175905767828226089e-03
3.652692437171936035e-01 -9.017970412969589233e-02 3.497689068317413330e-01
3.241411745548248291e-01 -5.367199704051017761e-02 -3.736408650875091553e-01
5.351943373680114746e-01 7.492676377296447754e-02 3.007912933826446533e-01
-2.674435973167419434e-01 1.757867783308029175e-01 8.186540007591247559e-02
3.199844062328338623e-01 1.659136712551116943e-01 6.742841005325317383e-02
-1.105681210756301880e-01 -2.853574603796005249e-02 -4.004144668579101562e-01
7.374341487884521484e-01 1.022077649831771851e-01 7.953631132841110229e-02
3.173389136791229248e-01 1.290442496538162231e-01 -2.512439191341400146e-01
2.220302969217300415e-01 -1.044469550251960754e-01 3.500007092952728271e-01
4.543491303920745850e-01 -1.676687300205230713e-01 2.636272273957729340e-02
-6.511148214340209961e-01 -1.108577027916908264e-01 -7.578861713409423828e-02
1.482075303792953491e-01 -1.411173492670059204e-01 2.781432867050170898e-01
-1.486987769603729248e-01 1.703972965478897095e-01 1.564365029335021973e-01
-5.225905179977416992e-01 -2.371052093803882599e-02 3.539094924926757812e-01
5.358833819627761841e-02 1.652862727642059326e-01 -1.719279587268829346e-01
3.896383345127105713e-01 5.981216952204704285e-02 -3.526653945446014404e-01
-4.440150558948516846e-01 2.019161544740200043e-02 -3.549022674560546875e-01
3.184287250041961670e-01 1.675188988447189331e-01 -3.636465594172477722e-02
6.133919954299926758e-01 1.276073902845382690e-01 8.605760335922241211e-02
-7.537592053413391113e-01 -7.491168379783630371e-02 -1.171209365129470825e-01
-5.223707556724548340e-01 1.477856338024139404e-01 -1.217048168182373047e-01
6.448559761047363281e-01 1.064096838235855103e-01 1.680850535631179810e-01
-5.501911640167236328e-01 1.272018402814865112e-01 2.110584527254104614e-01
-1.832619160413742065e-01 9.025231748819351196e-02 3.700122237205505371e-01
7.721735239028930664e-01 -1.193692162632942200e-01 -3.937541320919990540e-02
7.736463546752929688e-01 9.430615603923797607e-02 6.537726521492004395e-02
1.305444166064262390e-03 1.820659190416336060e-01 4.433126002550125122e-02
-6.645998954772949219e-01 1.340878605842590332e-01 8.319357782602310181e-02
2.188777476549148560e-01 1.144034937024116516e-01 3.158426284790039062e-01
8.078033924102783203e-01 1.709417626261711121e-02 2.255748212337493896e-01
6.768640279769897461e-01 -1.041804775595664978e-01 -2.015998214483261108e-01
-8.169901967048645020e-01 4.886444192379713058e-03 2.155145406723022461e-01
-3.049025833606719971e-01 1.769881993532180786e-01 5.550460889935493469e-03
4.322109818458557129e-01 1.412231624126434326e-01 -1.630541235208511353e-01
5.528911352157592773e-01 8.378135412931442261e-02 -2.725532948970794678e-01
2.351956069469451904e-01 1.688805520534515381e-01 -9.740847349166870117e-02
4.559152126312255859e-01 -2.571569569408893585e-02 3.792599439620971680e-01
-4.624744951725006104e-01 1.370160728693008423e-01 -1.991228759288787842e-01
-6.170509457588195801e-01 -1.242467761039733887e-01 1.753252185881137848e-02
2.558162212371826172e-01 1.445463299751281738e-01 -2.190293669700622559e-01
2.710128426551818848e-01 -1.050907969474792480e-01 3.431775271892547607e-01
1.754775047302246094e-01 -1.722829490900039673e-01 1.448328197002410889e-01
4.170964956283569336e-01 1.307440269738435745e-02 -3.740788996219635010e-01
7.931751012802124023e-01 -1.157547682523727417e-01 -1.080805808305740356e-02
1.570203155279159546e-02 3.478479105979204178e-03 -4.125978052616119385e-01
1.514989435672760010e-01 -1.559433639049530029e-01 2.293871939182281494e-01
8.333723545074462891e-01 -8.100690692663192749e-02 1.493561565876007080e-01
2.035584449768066406e-01 -1.707201451063156128e-01 -1.229526102542877197e-01
