4.780481383204460144e-02 2.459683716297149658e-01 4.091521203517913818e-01
5.944237112998962402e-01 -3.291027247905731201e-01 -1.615876108407974243e-01
-7.949838787317276001e-02 2.152837514877319336e-01 -5.282616019248962402e-01
1.312790662050247192e-01 -4.254953265190124512e-01 -1.978704482316970825e-01
5.846120119094848633e-01 -2.469878047704696655e-01 -1.965526342391967773e-01
4.268543422222137451e-01 -4.508009850978851318e-01 -2.090653777122497559e-01
3.128453791141510010e-01 -4.319877624511718750e-01 3.111886084079742432e-01
4.987351298332214355e-01 -4.324394762516021729e-01 2.322702854871749878e-01
6.110357642173767090e-01 -2.162743359804153442e-01 9.207239001989364624e-02
-4.935447275638580322e-01 -2.014699578285217285e-02 -5.373851209878921509e-02
-7.324670255184173584e-02 1.110986024141311646e-01 5.552642941474914551e-01
1.937370598316192627e-01 1.209414303302764893e-01 4.453346431255340576e-01
4.313246905803680420e-01 7.416426390409469604e-02 1.042415946722030640e-01
3.388560116291046143e-01 1.560579091310501099e-01 1.472063660621643066e-01
-3.274628520011901855e-02 4.141722619533538818e-01 -3.920275345444679260e-02
5.832044482231140137e-01 -4.031191468238830566e-01 -1.004273220896720886e-01
-1.359825134277343750e-01 4.346129000186920166e-01 1.547128260135650635e-01
-2.039719074964523315e-01 4.498786330223083496e-01 1.723743379116058350e-01
-3.577012419700622559e-01 4.521552324295043945e-01 2.238996922969818115e-01
-3.383491635322570801e-01 4.107745885848999023e-01 -3.576953113079071045e-01
-5.723881721496582031e-01 3.259458839893341064e-01 2.232728302478790283e-01
3.955817520618438721e-01 9.076242335140705109e-03 3.427135050296783447e-01
-5.505875945091247559e-01 3.282070755958557129e-01 -2.999641001224517822e-01
6.104289293289184570e-01 -2.386260628700256348e-01 1.269077956676483154e-01
4.085513055324554443e-01 1.070714592933654785e-01 2.882214449346065521e-02
-6.239670515060424805e-01 2.089092582464218140e-01 -2.822426846250891685e-03
-5.027176737785339355e-01 -1.087662111967802048e-02 4.960955120623111725e-04
-3.295683562755584717e-01 4.822720885276794434e-01 1.247959434986114502e-01
3.897307440638542175e-02 5.622575990855693817e-03 -5.802293419837951660e-01
6.260903477668762207e-01 -3.276829123497009277e-01 -2.075321227312088013e-02
1.053893938660621643e-01 -4.459340274333953857e-01 3.920601308345794678e-02
1.651803404092788696e-01 2.981579899787902832e-01 9.381549060344696045e-02
1.635029762983322144e-01 2.693571150302886963e-01 -2.570957243442535400e-01
-4.790643155574798584e-01 4.825625717639923096e-01 -1.309424042701721191e-01
-4.499853849411010742e-01 -2.055059187114238739e-02 -2.428631931543350220e-01
3.557296693325042725e-01 -4.131540656089782715e-01 3.408074975013732910e-01
3.795477151870727539e-01 3.017571056261658669e-03 -3.772720396518707275e-01
5.032225847244262695e-01 -1.209475770592689514e-01 -2.955068647861480713e-01
-4.431670904159545898e-02 4.082769155502319336e-01 1.111776232719421387e-01
1.897485107183456421e-01 -4.714664518833160400e-01 7.012246549129486084e-02
-4.596210122108459473e-01 -1.439374871551990509e-02 -2.309444546699523926e-01
4.797780215740203857e-01 -3.569483989849686623e-03 -1.824457943439483643e-01
1.180739700794219971e-01 -3.928580880165100098e-01 3.133361637592315674e-01
-1.448306441307067871e-01 1.629760712385177612e-01 -5.599424242973327637e-01
2.504676282405853271e-01 -1.482467632740736008e-02 5.057115554809570312e-01
-4.326238930225372314e-01 2.381373941898345947e-02 3.327311873435974121e-01
-3.737585544586181641e-01 3.223234415054321289e-01 3.997078239917755127e-01
5.449206829071044922e-01 -1.538526266813278198e-01 2.498463690280914307e-01
-3.220290839672088623e-01 4.196214377880096436e-01 -3.439848423004150391e-01
3.969407975673675537e-01 7.741392403841018677e-02 2.201298326253890991e-01
2.685961425304412842e-01 2.044698596000671387e-01 -2.139703482389450073e-01
-3.993724584579467773e-01 4.884391650557518005e-02 -4.137449562549591064e-01
7.503924518823623657e-02 -1.557032912969589233e-01 5.529671311378479004e-01
5.165190100669860840e-01 -4.288086295127868652e-01 2.181875854730606079e-01
1.322091668844223022e-01 -1.957117617130279541e-01 5.394014120101928711e-01
-1.219015866518020630e-01 7.369634509086608887e-02 5.609475374221801758e-01
-1.639755368232727051e-01 -2.974157631397247314e-01 -1.391210108995437622e-01
4.679732918739318848e-01 9.750963188707828522e-03 -1.886930912733078003e-01
5.850654244422912598e-01 -4.231134951114654541e-01 6.132458895444869995e-02
-2.890517413616180420e-01 1.391497552394866943e-01 -5.293343663215637207e-01
3.082177937030792236e-01 -4.111841917037963867e-01 -3.114857375621795654e-01
-1.624460816383361816e-01 4.361559152603149414e-01 -2.337610721588134766e-01
1.418805867433547974e-01 2.897953987121582031e-01 2.027733623981475830e-01
3.506592214107513428e-01 -3.819254934787750244e-01 -3.495066761970520020e-01
-2.705647945404052734e-01 3.875600099563598633e-01 3.428733944892883301e-01
-5.596515536308288574e-01 4.055595397949218750e-01 1.660097390413284302e-01
-2.064016312360763550e-01 -1.038458272814750671e-01 -4.656690359115600586e-01
-5.427381992340087891e-01 4.530303776264190674e-01 8.609730750322341919e-02
-2.497137635946273804e-01 4.646253585815429688e-01 -2.095891833305358887e-01
3.953886032104492188e-01 1.207737177610397339e-01 1.860004663467407227e-02
4.343897104263305664e-01 -4.305415749549865723e-01 2.856804430484771729e-01
2.015193402767181396e-01 -2.295053899288177490e-01 5.218914151191711426e-01
-1.667427271604537964e-01 4.498273432254791260e-01 1.286697387695312500e-01
2.856972515583038330e-01 -9.085696190595626831e-03 -4.821932017803192139e-01
1.375101059675216675e-01 -1.699601411819458008e-01 5.498344898223876953e-01
-2.908385545015335083e-02 2.840584814548492432e-01 4.070143699645996094e-01
-2.694803848862648010e-02 -3.258652389049530029e-01 -2.996182739734649658e-01
1.849601119756698608e-01 -4.751849919557571411e-02 -5.496634840965270996e-01
-1.845206767320632935e-01 1.086560562252998352e-01 5.447669625282287598e-01
2.157956361770629883e-01 -4.325280785560607910e-01 -2.442215234041213989e-01
6.119860410690307617e-01 -2.037980854511260986e-01 -2.824681997299194336e-02
4.701747298240661621e-01 -3.402872085571289062e-01 3.605418205261230469e-01
2.122457027435302734e-01 -3.532973825931549072e-01 4.206036925315856934e-01
-2.105999588966369629e-01 -1.676734983921051025e-01 3.941523730754852295e-01
8.683998137712478638e-02 -4.384150505065917969e-01 5.620857700705528259e-02
-1.349150240421295166e-01 -3.232198953628540039e-01 1.144448593258857727e-01
-4.287820756435394287e-01 4.507019221782684326e-01 -2.652584314346313477e-01
-2.881098538637161255e-02 -2.972182035446166992e-01 3.787515759468078613e-01
-6.989805400371551514e-02 3.148879706859588623e-01 -4.249716401100158691e-01
2.469276785850524902e-01 -4.284885525703430176e-01 3.055421113967895508e-01
1.970037966966629028e-01 2.651809751987457275e-01 -1.898086071014404297e-01
-1.493290364742279053e-01 2.480942308902740479e-01 -5.178660750389099121e-01
-3.120710253715515137e-01 4.493907392024993896e-01 -2.827425301074981689e-01
3.360474705696105957e-01 -2.831773459911346436e-01 -4.432584345340728760e-01
4.298999905586242676e-01 -3.346754908561706543e-01 3.928675651550292969e-01
-2.426346391439437866e-01 -2.470493316650390625e-01 1.360402256250381470e-01
-1.713831275701522827e-01 -2.934668660163879395e-01 1.559969633817672729e-01
-3.207560479640960693e-01 2.472190707921981812e-01 4.652507603168487549e-01
-2.490802854299545288e-01 1.606954485177993774e-01 5.181289911270141602e-01
-3.369797170162200928e-01 4.993348121643066406e-01 -3.398110158741474152e-03
1.640875041484832764e-01 -4.656309485435485840e-01 2.745757251977920532e-02
-3.083862960338592529e-01 3.296227753162384033e-01 4.114826917648315430e-01
3.338929116725921631e-01 -1.171012595295906067e-02 4.382500946521759033e-01
-1.814582496881484985e-01 1.711010485887527466e-01 5.291898846626281738e-01
-1.416956037282943726e-01 -3.224486112594604492e-01 -5.839834362268447876e-02
-1.034170165657997131e-01 -3.113087713718414307e-01 -2.296124398708343506e-01
-1.074109748005867004e-01 -2.536774612963199615e-02 -5.638650655746459961e-01
-3.231423199176788330e-01 -1.328996121883392334e-01 -2.834140360355377197e-01
1.751441210508346558e-01 2.214515954256057739e-01 3.213466107845306396e-01
3.032415807247161865e-01 -4.080748856067657471e-01 3.530694246292114258e-01
6.081981658935546875e-01 -2.520918250083923340e-01 -1.247274130582809448e-01
-1.807349175214767456e-01 4.689867794513702393e-01 -4.888796433806419373e-02
4.914040863513946533e-02 -2.332690805196762085e-01 5.005819201469421387e-01
-4.961417317390441895e-01 2.352402508258819580e-01 -3.833563923835754395e-01
-3.493252396583557129e-01 5.007578134536743164e-01 -3.424327075481414795e-02
5.171628594398498535e-01 -1.183510273694992065e-01 -2.661867737770080566e-01
7.957927137613296509e-02 -3.063139021396636963e-01 4.370925426483154297e-01
-6.276885271072387695e-01 3.688806295394897461e-01 -5.304292589426040649e-02
-2.589282095432281494e-01 2.106520235538482666e-01 4.996110498905181885e-01
-4.448491632938385010e-01 7.878813147544860840e-02 3.624195158481597900e-01
-2.137376964092254639e-01 1.714806109666824341e-01 -5.499461889266967773e-01
-3.626354038715362549e-02 7.892227731645107269e-03 -5.823971629142761230e-01
1.282674968242645264e-01 -4.128799736499786377e-01 -2.354048043489456177e-01
7.095823436975479126e-02 3.621299862861633301e-01 -4.784758016467094421e-02
-5.611303448677062988e-01 4.550371170043945312e-01 -7.039447128772735596e-02
-3.015766441822052002e-01 2.486999891698360443e-02 4.772635102272033691e-01
2.980926632881164551e-01 -4.307028278708457947e-02 -4.879304766654968262e-01
-1.681795567274093628e-01 -3.088471591472625732e-01 9.037133306264877319e-03
4.742085933685302734e-01 -4.328911900520324707e-01 2.545975148677825928e-01
4.491976201534271240e-01 -3.537502139806747437e-02 3.096477091312408447e-01
1.726204603910446167e-01 -4.660677015781402588e-01 -3.761620074510574341e-02
2.676806151866912842e-01 1.045149490237236023e-01 -4.074799120426177979e-01
-2.864263653755187988e-01 -2.049757391214370728e-01 -1.632410585880279541e-01
1.063009575009346008e-01 -4.417359232902526855e-01 1.074896454811096191e-01
4.397013485431671143e-01 5.560046806931495667e-02 -1.549168676137924194e-01
4.239946901798248291e-01 -4.857861995697021484e-01 -9.865705668926239014e-02
2.081318199634552002e-01 -2.620015740394592285e-01 5.033377408981323242e-01
-3.766450583934783936e-01 -1.002785116434097290e-01 2.431846261024475098e-01
-6.506811827421188354e-02 2.889309823513031006e-01 -4.560740292072296143e-01
-5.319054722785949707e-01 1.673346310853958130e-01 -3.122873306274414062e-01
-4.522183537483215332e-01 2.924925386905670166e-01 3.741473257541656494e-01
-1.972676068544387817e-01 -2.510083019733428955e-01 2.503134012222290039e-01
5.514797568321228027e-01 -1.110589951276779175e-01 -1.645283997058868408e-01
3.573679029941558838e-01 -4.940232634544372559e-01 1.133861765265464783e-01
5.242798328399658203e-01 -4.498857855796813965e-01 1.575493514537811279e-01
-1.004893332719802856e-01 3.851165473461151123e-01 2.729927599430084229e-01
3.532309532165527344e-01 -3.061823844909667969e-01 -4.217525720596313477e-01
-4.004381299018859863e-01 4.061159491539001465e-01 3.001792430877685547e-01
-8.443502336740493774e-02 4.360278546810150146e-01 -1.697195507586002350e-02
5.215438604354858398e-01 -6.607481837272644043e-02 -1.824568808078765869e-01
1.982911676168441772e-01 2.749777734279632568e-01 -1.342281699180603027e-01
9.625498205423355103e-02 2.028472572565078735e-01 -4.562906324863433838e-01
3.028127849102020264e-01 -1.271769255399703979e-01 -5.016176104545593262e-01
3.494815230369567871e-01 -1.848153173923492432e-01 4.865891933441162109e-01
-1.498712897300720215e-01 1.446025073528289795e-01 -5.646756291389465332e-01
-8.721814304590225220e-02 -3.329221606254577637e-01 -1.856502592563629150e-01
1.859991848468780518e-01 2.200951874256134033e-01 3.089177906513214111e-01
3.596764802932739258e-01 5.796930566430091858e-02 3.319152593612670898e-01
-4.402620196342468262e-01 4.723184108734130859e-01 1.465365886688232422e-01
5.296112969517707825e-02 1.287844926118850708e-01 5.213089585304260254e-01
-1.801421791315078735e-01 1.983868479728698730e-01 5.172714591026306152e-01
1.836984902620315552e-01 -1.661847578361630440e-03 5.356039404869079590e-01
-2.234463840723037720e-01 -2.114843875169754028e-01 -2.884742021560668945e-01
2.590179815888404846e-02 4.619359597563743591e-02 -5.776723623275756836e-01
1.696296930313110352e-01 -4.119504988193511963e-01 -2.697184681892395020e-01
5.681821703910827637e-01 -4.392561316490173340e-01 -2.804061956703662872e-02
4.706764519214630127e-01 -1.258591655641794205e-03 -2.064177840948104858e-01
-1.106558889150619507e-01 -2.217862159013748169e-01 4.202756285667419434e-01
-7.997094839811325073e-02 4.246474206447601318e-01 -1.511236429214477539e-01
-1.010544374585151672e-01 -2.990435361862182617e-01 -2.687501013278961182e-01
-8.414460718631744385e-02 3.752677440643310547e-01 -3.278952240943908691e-01
-9.877306967973709106e-02 3.920305371284484863e-01 -3.011128604412078857e-01
2.036201357841491699e-01 -4.152053594589233398e-01 -2.805904448032379150e-01
-4.112154841423034668e-01 4.875101447105407715e-01 -1.614589095115661621e-01
2.745094001293182373e-01 2.271508872509002686e-01 -4.303919523954391479e-02
5.509911775588989258e-01 -3.812840580940246582e-01 2.375583946704864502e-01
-6.307795643806457520e-01 2.487353682518005371e-01 -7.708816230297088623e-02
-2.708307802677154541e-01 -9.170611202716827393e-02 4.200716614723205566e-01
2.284947633743286133e-01 -3.242354989051818848e-01 -4.269235730171203613e-01
6.480331532657146454e-03 2.191220819950103760e-01 -4.948606789112091064e-01
-3.979640305042266846e-01 -7.522635161876678467e-02 -2.509125471115112305e-01
3.559734821319580078e-01 -2.491765022277832031e-01 4.727129042148590088e-01
-2.439091056585311890e-01 3.389797508716583252e-01 -4.484648704528808594e-01
4.535004496574401855e-01 -2.584653794765472412e-01 -3.842608630657196045e-01
-6.081810221076011658e-02 1.744667887687683105e-01 5.237153768539428711e-01
6.032327413558959961e-01 -3.811584711074829102e-01 -7.462363690137863159e-02
-1.589440554380416870e-01 4.384752810001373291e-01 -2.211408913135528564e-01
-4.178271070122718811e-02 -1.226987764239311218e-01 -5.385766029357910156e-01
5.289071202278137207e-01 -2.690690755844116211e-01 -2.993939518928527832e-01
-1.658859103918075562e-01 1.816996783018112183e-01 5.261330008506774902e-01
2.707893252372741699e-01 -4.662182331085205078e-01 2.107171714305877686e-01
-3.679627776145935059e-01 4.568458199501037598e-01 2.115831971168518066e-01
-3.743616342544555664e-01 -6.690298765897750854e-02 3.114669322967529297e-01
5.434119328856468201e-02 3.213977813720703125e-02 5.652046799659729004e-01
-5.090556144714355469e-01 1.918099373579025269e-01 3.290128111839294434e-01
3.460389375686645508e-01 -1.336292624473571777e-01 4.844940304756164551e-01
-5.380923151969909668e-01 7.632989436388015747e-02 -1.888934373855590820e-01
8.010778576135635376e-02 1.222282275557518005e-01 -5.334647297859191895e-01
5.154539346694946289e-01 -7.888797670602798462e-02 -2.229259759187698364e-01
2.030946686863899231e-02 -3.871417641639709473e-01 2.150495648384094238e-01
1.520279049873352051e-01 -3.646769374608993530e-02 -5.596371293067932129e-01
-6.276428103446960449e-01 3.523396253585815430e-01 4.906659200787544250e-02
-2.301740497350692749e-01 -2.287103086709976196e-01 -2.306771874427795410e-01
5.513529479503631592e-02 -3.375312983989715576e-01 -3.495109975337982178e-01
-1.466094404458999634e-01 3.682891428470611572e-01 -3.837049007415771484e-01
4.155789315700531006e-01 -1.078814044594764709e-01 -4.094321131706237793e-01
-3.555041253566741943e-01 3.812634944915771484e-01 3.463408052921295166e-01
5.782295390963554382e-02 3.276658356189727783e-01 2.377438843250274658e-01
5.660332441329956055e-01 -1.368494927883148193e-01 -1.558512449264526367e-01
2.824132144451141357e-01 4.335276409983634949e-02 4.420125484466552734e-01
-5.694482326507568359e-01 3.289389908313751221e-01 -2.710774540901184082e-01
-9.502893313765525818e-03 -3.884437382221221924e-01 1.398322880268096924e-01
-5.250629782676696777e-01 2.036122083663940430e-01 -3.406381309032440186e-01
-5.968852639198303223e-01 1.836627125740051270e-01 -1.659917533397674561e-01
-6.164638996124267578e-01 1.945607215166091919e-01 4.580780118703842163e-02
2.586843371391296387e-01 1.696762889623641968e-01 2.998684942722320557e-01
-3.130156993865966797e-01 1.945559680461883545e-01 -5.160036683082580566e-01
-5.724859833717346191e-01 1.745730787515640259e-01 2.032759040594100952e-01
-3.186535835266113281e-01 -8.105909079313278198e-02 -3.774018585681915283e-01
4.775493741035461426e-01 -5.204148590564727783e-02 -2.750504910945892334e-01
-5.071586966514587402e-01 4.834592640399932861e-01 -4.956385865807533264e-02
-5.863863825798034668e-01 2.909850776195526123e-01 2.094798386096954346e-01
-5.378298163414001465e-01 1.173558905720710754e-01 2.323882430791854858e-01
6.965547055006027222e-02 -2.937872111797332764e-01 4.479258358478546143e-01
-2.693369090557098389e-01 -1.424246001988649368e-02 4.817237257957458496e-01
-4.048265218734741211e-01 -3.351891785860061646e-02 3.079242408275604248e-01
-2.925769388675689697e-01 4.378378391265869141e-01 -3.056071102619171143e-01
1.299516558647155762e-01 2.952080368995666504e-01 -2.453826963901519775e-01
9.086928516626358032e-02 -2.841783165931701660e-01 4.671169519424438477e-01
2.085681557655334473e-01 1.660958826541900635e-01 -3.967888653278350830e-01
-4.592931270599365234e-01 3.339823782444000244e-01 -3.885877728462219238e-01
-8.554172515869140625e-02 -1.989942491054534912e-01 -4.538187682628631592e-01
-3.906639516353607178e-01 2.318913638591766357e-01 -4.710422456264495850e-01
-1.547304354608058929e-02 -3.445053100585937500e-01 2.947354018688201904e-01
2.093489766120910645e-01 -1.642659492790699005e-02 5.292432308197021484e-01
-6.372849345207214355e-01 2.960798740386962891e-01 -6.126623973250389099e-02
3.189770877361297607e-01 1.899908781051635742e-01 -5.639068782329559326e-02
4.343040660023689270e-02 -3.256624639034271240e-01 3.885731399059295654e-01
2.981627285480499268e-01 1.882331520318984985e-01 -1.830007284879684448e-01
-4.470667839050292969e-01 4.413745701313018799e-01 2.199223190546035767e-01
1.316564381122589111e-01 -3.313003480434417725e-01 4.267391860485076904e-01
5.859930515289306641e-01 -1.403227448463439941e-01 6.268646568059921265e-02
-5.070915818214416504e-01 1.752451360225677490e-01 3.269016146659851074e-01
6.095225214958190918e-01 -2.043186426162719727e-01 -5.833636224269866943e-02
-5.760526284575462341e-03 3.998266458511352539e-01 3.471787646412849426e-02
3.056912422180175781e-01 -4.663732945919036865e-01 -1.824365407228469849e-01
-2.705599665641784668e-01 4.801020920276641846e-01 9.769864380359649658e-02
6.027679443359375000e-01 -1.806040257215499878e-01 -4.804150387644767761e-02
4.463102221488952637e-01 -3.251897990703582764e-01 -3.588335812091827393e-01
5.797985196113586426e-01 -2.985295951366424561e-01 -2.077564597129821777e-01
5.352646708488464355e-01 -3.975446522235870361e-01 -2.047451138496398926e-01
3.594713807106018066e-01 1.023636460304260254e-01 2.514517605304718018e-01
5.381184220314025879e-01 -1.870412826538085938e-01 2.889319956302642822e-01
4.452266991138458252e-01 -5.704195797443389893e-02 -3.387377262115478516e-01
-1.634887605905532837e-01 -3.048239946365356445e-01 -9.508787840604782104e-02
4.290386438369750977e-01 -1.804815083742141724e-01 -4.134412705898284912e-01
7.150700688362121582e-02 3.606875538825988770e-01 -7.225520908832550049e-02
-6.306138038635253906e-01 2.394789159297943115e-01 -5.729864537715911865e-02
-3.130517303943634033e-01 -1.233104914426803589e-01 -3.200396001338958740e-01
1.250156313180923462e-01 3.183314502239227295e-01 1.251684129238128662e-01
-6.105455160140991211e-01 2.073002606630325317e-01 -1.410271227359771729e-01
-1.326842904090881348e-01 -2.360772937536239624e-01 -3.620627820491790771e-01
3.962799012660980225e-01 7.037997245788574219e-02 -2.498234659433364868e-01
2.944654822349548340e-01 -4.265036880970001221e-01 -2.822444438934326172e-01
1.649354770779609680e-02 3.584322333335876465e-01 -2.503947317600250244e-01
1.287601143121719360e-01 -6.204036250710487366e-02 -5.660396218299865723e-01
-2.422874718904495239e-01 3.873499929904937744e-01 3.390300273895263672e-01
1.573387980461120605e-01 2.955454587936401367e-01 1.389909982681274414e-01
4.369660019874572754e-01 -2.306513339281082153e-01 -4.043231904506683350e-01
-3.499975502490997314e-01 4.577703177928924561e-01 -2.657665312290191650e-01
4.987064003944396973e-01 1.355860149487853050e-03 5.802764371037483215e-02
4.491872787475585938e-01 6.447713822126388550e-02 9.321838617324829102e-03
2.282938510179519653e-01 1.572259217500686646e-01 3.646858036518096924e-01
-6.245350837707519531e-01 3.331429958343505859e-01 -1.321171671152114868e-01
-2.710099890828132629e-02 -6.416128948330879211e-03 5.749076008796691895e-01
-5.594935417175292969e-01 4.554913640022277832e-01 1.925284974277019501e-02
4.771362841129302979e-01 -4.592558741569519043e-01 1.941721886396408081e-01
-4.568859636783599854e-01 4.948098361492156982e-01 -7.374332100152969360e-02
-1.917622387409210205e-01 -2.489891052246093750e-01 -2.503407895565032959e-01
-5.300720930099487305e-01 2.341581135988235474e-01 3.062925934791564941e-01
4.385520815849304199e-01 2.271389402449131012e-02 -2.443671226501464844e-01
-1.464182138442993164e-01 7.411705702543258667e-02 5.566536784172058105e-01
1.650523245334625244e-01 -6.361887603998184204e-02 5.577147603034973145e-01
-4.782295525074005127e-01 -3.819050639867782593e-02 5.230817571282386780e-02
-3.614000678062438965e-01 4.586201608180999756e-01 -2.634687125682830811e-01
-7.547191530466079712e-02 -8.384083956480026245e-02 5.500391125679016113e-01
4.280202984809875488e-01 -4.541063681244850159e-02 -3.543692529201507568e-01
5.955000519752502441e-01 -2.982058227062225342e-01 -1.708762049674987793e-01
2.689923048019409180e-01 1.658239662647247314e-01 -3.121936917304992676e-01
-5.333315730094909668e-01 1.971085667610168457e-01 2.946269512176513672e-01
-3.752961158752441406e-01 3.453558543696999550e-03 3.926686048507690430e-01
1.892520934343338013e-01 1.938222199678421021e-01 -3.785409927368164062e-01
-4.774808585643768311e-01 5.254372023046016693e-03 2.134052217006683350e-01
1.366719752550125122e-01 2.819522917270660400e-01 -2.722761929035186768e-01
3.335672914981842041e-01 3.528651222586631775e-02 -4.041817784309387207e-01
-4.824920892715454102e-01 4.334011673927307129e-01 -2.650795876979827881e-01
-2.314206659793853760e-01 2.399282157421112061e-01 4.899164736270904541e-01
2.181925624608993530e-02 -3.883779346942901611e-01 -1.806957423686981201e-01
-2.110257148742675781e-01 -2.363351583480834961e-01 -2.483582943677902222e-01
1.996279209852218628e-01 -2.697068154811859131e-01 4.983356893062591553e-01
-4.253861904144287109e-01 2.180451005697250366e-01 -4.488160014152526855e-01
3.859038949012756348e-01 -4.050146937370300293e-01 3.448260724544525146e-01
8.383177965879440308e-02 -2.715441584587097168e-01 4.775057733058929443e-01
-5.665991306304931641e-01 2.092825323343276978e-01 2.388175576925277710e-01
4.052467942237854004e-01 -4.811277985572814941e-01 -1.286478936672210693e-01
-1.290028393268585205e-01 2.009977698326110840e-01 -5.441071987152099609e-01
1.226106658577919006e-01 3.257935643196105957e-01 -1.254441738128662109e-01
5.397024154663085938e-01 -4.284194409847259521e-01 1.845168918371200562e-01
-2.558084130287170410e-01 -2.445471137762069702e-01 -6.524138152599334717e-02
4.410060346126556396e-01 -4.826912879943847656e-01 -1.008886694908142090e-01
5.854643583297729492e-01 -4.205442667007446289e-01 -3.455298021435737610e-02
-4.422439634799957275e-01 4.947600662708282471e-01 3.777391836047172546e-02
1.243544090539216995e-02 -1.722435206174850464e-01 5.328423380851745605e-01
3.362170159816741943e-01 -4.803510308265686035e-01 -1.378108561038970947e-01
3.717114627361297607e-01 -4.323564767837524414e-01 -2.666037678718566895e-01
-1.360808461904525757e-01 1.012769341468811035e-01 -5.730689764022827148e-01
8.853068202733993530e-02 2.640594542026519775e-01 3.445681333541870117e-01
-1.137577369809150696e-01 4.103972315788269043e-01 -2.652403414249420166e-01
-5.321476459503173828e-01 1.050209477543830872e-01 -2.533116936683654785e-01
-4.168471097946166992e-01 4.820779860019683838e-01 -1.821714639663696289e-01
9.277545846998691559e-03 -3.096386790275573730e-01 3.896764218807220459e-01
-2.405806258320808411e-02 -3.697063028812408447e-01 1.996386498212814331e-01
-1.600179374217987061e-01 -2.979186177253723145e-01 1.710653603076934814e-01
1.608009040355682373e-01 -2.497705519199371338e-01 -4.911364614963531494e-01
4.966345429420471191e-01 -4.513633251190185547e-01 1.936711370944976807e-01
-6.358160376548767090e-01 2.614185512065887451e-01 -1.153891719877719879e-02
-1.191293522715568542e-01 -1.033648028969764709e-01 -5.204263329505920410e-01
-4.283538758754730225e-01 -9.171725809574127197e-02 7.487704604864120483e-02
1.099083200097084045e-01 1.879546642303466797e-01 -4.624083638191223145e-01
-4.345053732395172119e-01 4.842872321605682373e-01 1.055076643824577332e-01
1.465918868780136108e-01 -6.647590547800064087e-02 -5.619466304779052734e-01
9.439392387866973877e-02 2.078138142824172974e-01 4.247358441352844238e-01
2.531433701515197754e-01 1.030831187963485718e-01 -4.251086413860321045e-01
-3.254929780960083008e-01 3.197877407073974609e-01 -4.585429131984710693e-01
1.302046775817871094e-01 -3.692000806331634521e-01 -3.377122879028320312e-01
5.579915046691894531e-01 -8.277403563261032104e-02 -1.519989222288131714e-02
-3.217425048351287842e-01 -1.299945116043090820e-01 2.957212626934051514e-01
-2.610609829425811768e-01 -2.400325536727905273e-01 8.619216084480285645e-02
5.515854358673095703e-01 -3.761763572692871094e-01 -2.069593220949172974e-01
-2.873139679431915283e-01 -1.055716946721076965e-01 -3.840745389461517334e-01
-1.845183074474334717e-01 3.838946521282196045e-01 3.274610936641693115e-01
3.420597016811370850e-01 -4.410926699638366699e-01 -2.530065774917602539e-01
3.636973351240158081e-02 3.516229391098022461e-01 -2.385521680116653442e-01
4.468701183795928955e-01 -4.838471412658691406e-01 -8.999342471361160278e-02
-4.114030301570892334e-01 -3.106798231601715088e-02 -3.065814971923828125e-01
5.264492630958557129e-01 -2.192243039608001709e-01 -3.027987182140350342e-01
1.372087001800537109e-01 -4.411910474300384521e-01 1.791273951530456543e-01
-8.196126669645309448e-02 -3.469014763832092285e-01 -1.345638781785964966e-01
1.047004610300064087e-01 -9.920158982276916504e-02 -5.643393993377685547e-01
1.847529709339141846e-01 -3.435815572738647461e-01 4.271123409271240234e-01
4.407199025154113770e-01 -3.451406061649322510e-01 3.787550032138824463e-01
3.009076118469238281e-01 2.045739442110061646e-01 4.022495448589324951e-02
-3.846044242382049561e-01 1.214007884263992310e-01 -4.667907953262329102e-01
3.435471355915069580e-01 -3.403781652450561523e-01 -3.968997597694396973e-01
4.162746667861938477e-01 -4.956744313240051270e-01 8.427183330059051514e-02
5.996863916516304016e-02 3.625700771808624268e-01 -1.209307387471199036e-01
3.200362026691436768e-01 -2.304295003414154053e-01 4.939348101615905762e-01
-2.445431649684906006e-01 -1.318886280059814453e-01 4.029032886028289795e-01
-5.599729418754577637e-01 2.420474588871002197e-01 -2.957819998264312744e-01
-2.524331212043762207e-01 -7.475399971008300781e-02 4.535866379737854004e-01
1.385311037302017212e-01 -3.131635189056396484e-01 -4.254110157489776611e-01
-2.323200926184654236e-02 5.952594801783561707e-03 -5.828031897544860840e-01
1.612647771835327148e-01 -4.132872819900512695e-01 2.966094613075256348e-01
5.356609821319580078e-02 3.719590604305267334e-01 -1.603236421942710876e-02
-6.141678988933563232e-02 2.282944619655609131e-01 -5.138728618621826172e-01
1.160641014575958252e-01 -2.129670679569244385e-01 -5.140600800514221191e-01
1.868214309215545654e-01 1.718574762344360352e-01 -4.129177331924438477e-01
-1.247439458966255188e-01 4.409675598144531250e-01 1.024205163121223450e-01
-1.236578822135925293e-01 4.374573528766632080e-01 -1.727759391069412231e-01
3.859008550643920898e-01 -3.944697678089141846e-01 -3.229418694972991943e-01
-2.712751328945159912e-01 4.555087685585021973e-01 -2.536623477935791016e-01
-4.573445767164230347e-02 3.528139591217041016e-01 -3.421754539012908936e-01
7.457888871431350708e-02 2.964773178100585938e-01 -3.309706449508666992e-01
-4.512042701244354248e-01 4.329977035522460938e-01 2.334680408239364624e-01
1.805162280797958374e-01 2.936367690563201904e-01 4.196679964661598206e-02
3.574750125408172607e-01 -2.847194969654083252e-01 -4.338527917861938477e-01
1.562073379755020142e-01 -1.902920454740524292e-01 5.417143702507019043e-01
-2.562753558158874512e-01 -2.149285972118377686e-01 -2.130092233419418335e-01
3.757060468196868896e-01 -8.031792193651199341e-02 4.420387446880340576e-01
5.583809018135070801e-01 -8.537549525499343872e-02 4.527469351887702942e-02
5.064078792929649353e-02 2.977790236473083496e-01 3.198258280754089355e-01
4.797573387622833252e-01 -3.365410566329956055e-01 -3.243935108184814453e-01
-1.717666685581207275e-01 -1.903434842824935913e-01 -3.939307928085327148e-01
-4.013571739196777344e-01 -8.883923292160034180e-02 -2.077052146196365356e-01
-4.973019659519195557e-01 1.567792743444442749e-01 3.337234258651733398e-01
-1.295915246009826660e-01 3.449774384498596191e-01 3.694788515567779541e-01
-2.392080128192901611e-01 -1.275551468133926392e-01 -4.099116623401641846e-01
1.982105076313018799e-01 -4.638297855854034424e-01 -1.129477024078369141e-01
5.542702674865722656e-01 -1.310414224863052368e-01 1.975009143352508545e-01
-3.579604923725128174e-01 2.257337272167205811e-01 -4.901127815246582031e-01
5.188249945640563965e-01 -1.090898364782333374e-01 -2.532452642917633057e-01
6.448852270841598511e-02 -4.238280057907104492e-01 -8.652595430612564087e-02
-5.391243100166320801e-01 1.619158536195755005e-01 2.679729163646697998e-01
1.147203072905540466e-01 2.740589082241058350e-01 2.926337718963623047e-01
-3.259823620319366455e-01 3.377611637115478516e-01 4.004782736301422119e-01
-1.755271106958389282e-01 2.046470046043395996e-01 -5.432745218276977539e-01
-4.599776268005371094e-01 -5.971251055598258972e-02 -5.455691367387771606e-02
-1.809834241867065430e-01 4.545954167842864990e-01 -1.795892417430877686e-01
-2.261360585689544678e-01 -2.692559361457824707e-01 3.415263816714286804e-02
9.507960081100463867e-02 3.467203080654144287e-01 -8.131830394268035889e-02
-6.320931017398834229e-02 -1.453942209482192993e-01 5.226061940193176270e-01
3.746676146984100342e-01 -2.546781003475189209e-01 4.615955054759979248e-01
-3.522772341966629028e-02 3.520799577236175537e-01 2.908941805362701416e-01
4.632184803485870361e-01 -3.673996031284332275e-01 -3.119699656963348389e-01
-3.260459899902343750e-01 2.203721106052398682e-01 4.740040898323059082e-01
1.342840939760208130e-01 2.013291716575622559e-01 -4.262902438640594482e-01
1.391110420227050781e-01 2.506207823753356934e-01 -3.419688344001770020e-01
5.965296626091003418e-01 -2.173070162534713745e-01 1.642494201660156250e-01
5.267056226730346680e-01 -8.999305963516235352e-02 2.147327959537506104e-01
-3.388082087039947510e-01 4.400369226932525635e-01 2.519814968109130859e-01
1.924811452627182007e-01 2.295278012752532959e-01 2.781888842582702637e-01
-3.903783857822418213e-01 2.502826750278472900e-01 -4.672759175300598145e-01
-2.682972252368927002e-01 4.410091340541839600e-01 2.379426062107086182e-01
-2.409307807683944702e-01 4.844872355461120605e-01 -7.882494479417800903e-03
5.041649937629699707e-01 -6.858450360596179962e-03 -6.854519993066787720e-02
-5.774939656257629395e-01 2.453681528568267822e-01 2.274027317762374878e-01
3.877463936805725098e-01 9.704250097274780273e-02 -2.061160951852798462e-01
-4.259158372879028320e-01 4.990475773811340332e-01 9.697625413537025452e-03
-2.562466859817504883e-01 -1.723515540361404419e-01 3.266051113605499268e-01
-5.076535940170288086e-01 1.389807164669036865e-01 3.090536594390869141e-01
3.669695854187011719e-01 -4.904087781906127930e-01 -9.248169511556625366e-02
-2.061513513326644897e-01 4.469558298587799072e-01 -2.385476082563400269e-01
-3.916768133640289307e-01 -9.911739081144332886e-02 2.063010036945343018e-01
2.852203547954559326e-01 -3.501043319702148438e-01 -3.974731564521789551e-01
-2.853654623031616211e-01 -1.219281107187271118e-01 3.661706149578094482e-01
-2.403444945812225342e-01 -2.439603209495544434e-01 -1.456521600484848022e-01
-4.007798731327056885e-01 -4.654167965054512024e-02 -3.009166419506072998e-01
-1.052469536662101746e-01 3.159289062023162842e-01 4.015077650547027588e-01
3.967800736427307129e-01 9.649864584207534790e-02 1.640249341726303101e-01
-4.381154775619506836e-01 1.371408160775899887e-02 3.121476173400878906e-01
4.321083128452301025e-01 -4.046777784824371338e-01 3.252979218959808350e-01
3.374463021755218506e-01 8.732571452856063843e-02 3.217702209949493408e-01
-3.213850259780883789e-01 2.357917279005050659e-01 4.700598120689392090e-01
5.372406840324401855e-01 -2.577334046363830566e-01 -2.885979115962982178e-01
1.429636776447296143e-01 -4.387324452400207520e-01 1.986810117959976196e-01
1.499882489442825317e-01 -3.513108193874359131e-01 -3.768284618854522705e-01
-1.725068241357803345e-01 -4.860187321901321411e-02 -5.282558798789978027e-01
3.182420432567596436e-01 -4.219795763492584229e-01 -2.921201884746551514e-01
6.121027469635009766e-01 -2.562167644500732422e-01 -1.103422641754150391e-01
2.240325212478637695e-01 -2.185807228088378906e-01 5.241331458091735840e-01
2.199912220239639282e-01 -3.809299692511558533e-02 -5.332636833190917969e-01
4.482138752937316895e-01 -4.828882217407226562e-01 1.383750885725021362e-01
4.005724191665649414e-01 -9.574514627456665039e-02 -4.201360344886779785e-01
1.522370576858520508e-01 -4.034711718559265137e-01 3.136703372001647949e-01
-2.908402979373931885e-01 4.113188087940216064e-01 -3.562541902065277100e-01
-4.416977167129516602e-01 -8.210889995098114014e-02 8.761500939726829529e-03
-3.026992380619049072e-01 -1.882906109094619751e-01 1.870464980602264404e-01
2.991773486137390137e-01 -4.919831156730651855e-01 9.098927676677703857e-02
4.436474442481994629e-01 -4.072988629341125488e-01 -2.779562771320343018e-01
-6.031598448753356934e-01 1.913880556821823120e-01 -1.513039618730545044e-01
1.650028824806213379e-01 -4.426179528236389160e-01 2.103411555290222168e-01
5.829455256462097168e-01 -3.687361776828765869e-01 1.900913715362548828e-01
-3.260343074798583984e-01 4.986998438835144043e-01 -1.854300685226917267e-02
-5.123401880264282227e-01 2.343973517417907715e-01 -3.642876744270324707e-01
3.910368084907531738e-01 -1.181320995092391968e-01 4.449423551559448242e-01
5.238319039344787598e-01 -3.648388385772705078e-01 -2.563976645469665527e-01
-2.207336276769638062e-01 4.441768825054168701e-01 -2.586250007152557373e-01
-2.451519668102264404e-02 3.907833099365234375e-01 -2.030739188194274902e-01
1.668092012405395508e-01 -1.103008538484573364e-02 5.459328293800354004e-01
2.214156687259674072e-01 2.449122667312622070e-01 -2.003237456083297729e-01
1.617691963911056519e-01 -2.041151523590087891e-01 5.357218384742736816e-01
2.627450525760650635e-01 1.422829329967498779e-01 3.436158001422882080e-01
-5.879402756690979004e-01 1.209920272231101990e-01 -3.286531195044517517e-02
-1.221456080675125122e-01 -3.044463992118835449e-01 -2.163237035274505615e-01
-2.464598268270492554e-01 4.057941436767578125e-01 3.078002035617828369e-01
4.810279011726379395e-01 -4.861848056316375732e-01 -1.165079325437545776e-02
6.098443269729614258e-01 -2.649350166320800781e-01 -1.238550692796707153e-01
2.139652520418167114e-01 -1.737197786569595337e-01 5.398740768432617188e-01
-6.278232932090759277e-01 2.261148393154144287e-01 -5.207623168826103210e-02
-4.640037715435028076e-01 6.291752308607101440e-02 3.213219344615936279e-01
3.880563378334045410e-01 8.672074973583221436e-02 -2.328553050756454468e-01
-2.051120549440383911e-01 3.205582499504089355e-01 -4.637251794338226318e-01
1.173375025391578674e-01 -3.410252928733825684e-01 4.074251949787139893e-01
5.433327555656433105e-01 -9.584837406873703003e-02 1.720498055219650269e-01
3.732428848743438721e-01 1.185257583856582642e-01 -1.850349754095077515e-01
-5.013162493705749512e-01 4.580837786197662354e-01 -1.935486942529678345e-01
-6.070309877395629883e-01 1.613771915435791016e-01 -1.787611655890941620e-02
-1.858181804418563843e-01 -2.694815993309020996e-01 2.168491333723068237e-01
-3.628213703632354736e-01 -1.491658985614776611e-01 1.237547993659973145e-01
3.631896078586578369e-01 -4.435132741928100586e-01 -2.455317676067352295e-01
-5.639765858650207520e-01 9.672926366329193115e-02 -1.309542655944824219e-01
-2.187940850853919983e-02 3.957575559616088867e-01 1.261740624904632568e-01
1.622856110334396362e-01 3.360925242304801941e-02 -5.391669869422912598e-01
-5.305379033088684082e-01 3.329688906669616699e-01 -3.233217597007751465e-01
4.336686432361602783e-01 -4.961538612842559814e-01 5.107908695936203003e-02
-1.927169114351272583e-01 3.041422180831432343e-02 -5.522084236145019531e-01
-5.310417711734771729e-02 -3.758559525012969971e-01 1.691533997654914856e-02
-4.665197432041168213e-01 -5.375839024782180786e-02 -3.426759690046310425e-02
-4.786200225353240967e-01 3.289356231689453125e-01 -3.767415881156921387e-01
9.974121302366256714e-02 2.789889574050903320e-01 3.015730082988739014e-01
-4.249424934387207031e-01 4.442695975303649902e-01 -2.801167964935302734e-01
-6.275636553764343262e-01 3.545309901237487793e-01 -9.329341351985931396e-02
-9.629098325967788696e-02 2.083331793546676636e-01 -5.360674858093261719e-01
3.982958495616912842e-01 -2.716554403305053711e-01 4.429098367691040039e-01
4.366433620452880859e-01 -1.561575084924697876e-01 4.144023656845092773e-01
2.663754522800445557e-01 1.743683069944381714e-01 2.765603065490722656e-01
-1.379166394472122192e-01 1.454017758369445801e-01 -5.652633309364318848e-01
-1.537084728479385376e-01 -3.175395727157592773e-01 -1.682391576468944550e-02
-3.277249336242675781e-01 4.970706999301910400e-01 2.233704924583435059e-02
-1.471406370401382446e-01 -2.711469233036041260e-01 -2.693109214305877686e-01
1.337187886238098145e-01 -4.355146288871765137e-01 -1.618091911077499390e-01
-3.487226963043212891e-01 4.858693480491638184e-01 1.136715561151504517e-01
-2.276343405246734619e-01 4.816275537014007568e-01 -1.686804741621017456e-02
-4.847708344459533691e-01 8.844523131847381592e-02 3.098238408565521240e-01
4.259387552738189697e-01 7.028137147426605225e-02 1.476225256919860840e-01
1.577432453632354736e-01 -3.688688576221466064e-01 -3.513886928558349609e-01
2.274094074964523315e-01 2.441776692867279053e-01 -1.850478649139404297e-01
-4.534715712070465088e-01 4.726253449916839600e-01 -1.951171159744262695e-01
3.944493830204010010e-01 1.123350113630294800e-01 1.049373894929885864e-01
-3.955898284912109375e-01 -9.118347615003585815e-02 2.167095541954040527e-01
2.215485423803329468e-01 -3.724216222763061523e-01 -3.649539649486541748e-01
5.755241587758064270e-02 1.864826083183288574e-01 4.723123013973236084e-01
-1.387174874544143677e-01 -2.314378023147583008e-01 3.786962330341339111e-01
-3.909290134906768799e-01 4.070434346795082092e-02 -4.170531928539276123e-01
6.515340507030487061e-02 2.721768915653228760e-01 -3.876385092735290527e-01
4.336935281753540039e-01 -4.949068427085876465e-01 -2.475156821310520172e-02
-4.177762269973754883e-01 4.780929088592529297e-01 -1.963575780391693115e-01
3.212589919567108154e-01 -8.152423053979873657e-02 -4.835799634456634521e-01
-2.218974083662033081e-01 3.076665699481964111e-01 -4.773873388767242432e-01
4.072631597518920898e-01 -1.813954114913940430e-01 -4.324085116386413574e-01
-1.554377079010009766e-01 2.504693344235420227e-02 5.530530810356140137e-01
-1.969087719917297363e-01 3.549117147922515869e-01 -4.224135279655456543e-01
3.456491529941558838e-01 -4.351983666419982910e-01 -2.650997936725616455e-01
-5.289567261934280396e-02 4.195909500122070312e-01 5.161247029900550842e-02
3.330786228179931641e-01 -4.712790548801422119e-01 -1.716348677873611450e-01
-2.398583143949508667e-01 7.121293991804122925e-02 5.265948176383972168e-01
2.333916351199150085e-02 1.533190608024597168e-01 5.153330564498901367e-01
5.333840847015380859e-01 -2.772760987281799316e-01 -2.916553616523742676e-01
1.395018994808197021e-01 9.979852288961410522e-02 5.011803507804870605e-01
-4.066328704357147217e-01 -7.737778127193450928e-02 2.215898483991622925e-01
-7.978082634508609772e-03 -3.511929214000701904e-01 2.869497537612915039e-01
2.924404442310333252e-01 -4.930594563484191895e-01 6.517694145441055298e-02
5.429751873016357422e-01 -8.187993615865707397e-02 1.402994841337203979e-01
8.953634649515151978e-02 2.022790312767028809e-01 4.351287484169006348e-01
-1.513193547725677490e-01 1.803921908140182495e-01 -5.537554621696472168e-01
3.249339759349822998e-01 1.792756915092468262e-01 -1.108461767435073853e-01
-5.944092869758605957e-01 2.082106620073318481e-01 1.692553907632827759e-01
4.225763976573944092e-01 -4.884046912193298340e-01 1.311862915754318237e-01
3.523885607719421387e-01 -4.447343051433563232e-01 2.845547795295715332e-01
4.770165383815765381e-01 -3.122723102569580078e-01 -3.419997692108154297e-01
-5.486141443252563477e-01 1.207166835665702820e-01 -2.324995249509811401e-01
-9.607985615730285645e-02 -3.520876467227935791e-01 -1.042198948562145233e-02
9.588670730590820312e-02 3.394092023372650146e-01 1.015399321913719177e-01
-3.599819839000701904e-01 1.406610608100891113e-01 4.660262465476989746e-01
5.414225459098815918e-01 -4.517118036746978760e-01 1.129439696669578552e-01
-1.062899604439735413e-01 2.302832305431365967e-01 4.925359189510345459e-01
3.032459914684295654e-01 1.881653368473052979e-01 -1.649183332920074463e-01
-6.294527649879455566e-01 3.526144921779632568e-01 3.581698238849639893e-02
-4.482149779796600342e-01 3.775506913661956787e-01 3.129661381244659424e-01
9.613551944494247437e-02 -3.981233537197113037e-01 -2.469941079616546631e-01
-4.102801084518432617e-01 -5.363847687840461731e-02 -2.686187028884887695e-01
-2.779425680637359619e-01 -2.152891010046005249e-01 -1.469541341066360474e-01
-4.177359342575073242e-01 3.241802155971527100e-01 -4.205847084522247314e-01
-2.376921027898788452e-01 -2.362312823534011841e-01 2.019347697496414185e-01
-3.393694758415222168e-01 -1.112256124615669250e-01 -2.972094118595123291e-01
5.859776735305786133e-01 -3.728645741939544678e-01 -1.434113979339599609e-01
1.458953022956848145e-01 -3.063560426235198975e-01 -4.353800415992736816e-01
-3.277949690818786621e-01 -1.820191740989685059e-01 1.155142635107040405e-01
-5.587539076805114746e-01 7.694972306489944458e-02 -8.995530009269714355e-02
-1.044759452342987061e-01 -5.581201985478401184e-02 -5.530219674110412598e-01
-6.828282028436660767e-02 2.500547766685485840e-01 -4.977358281612396240e-01
-3.857570290565490723e-01 4.711165726184844971e-01 1.696568429470062256e-01
-5.694448947906494141e-01 4.337691962718963623e-01 8.506026118993759155e-02
-1.575976908206939697e-01 9.624194353818893433e-02 5.521526336669921875e-01
-2.276356890797615051e-02 3.242466449737548828e-01 -3.775275647640228271e-01
7.434915006160736084e-02 -4.331863224506378174e-01 6.343191862106323242e-02
-2.550912797451019287e-01 2.603479623794555664e-01 -5.093367695808410645e-01
3.449911773204803467e-01 -4.855799674987792969e-01 1.601589173078536987e-01
4.929257035255432129e-01 -6.127825751900672913e-02 2.562977671623229980e-01
-2.562212049961090088e-01 -1.113547682762145996e-01 4.143345355987548828e-01
5.330004096031188965e-01 -1.108141988515853882e-01 -2.209120839834213257e-01
2.134754806756973267e-01 1.384306550025939941e-01 4.072726964950561523e-01
-4.044878482818603516e-01 -1.090667843818664551e-01 1.213656291365623474e-01
-4.403404593467712402e-01 2.318312376737594604e-01 -4.363468289375305176e-01
5.887431502342224121e-01 -1.565820127725601196e-01 -8.712147921323776245e-02
4.067629873752593994e-01 -4.111064970493316650e-01 3.287263214588165283e-01
-3.603019118309020996e-01 -3.038549609482288361e-02 -3.860968649387359619e-01
4.942945837974548340e-01 -4.730254709720611572e-01 -7.941162586212158203e-02
-4.468767940998077393e-01 1.967855393886566162e-01 3.996135890483856201e-01
-5.547617673873901367e-01 4.553975164890289307e-01 -9.866840392351150513e-02
3.127796351909637451e-01 1.128326728940010071e-01 3.186177015304565430e-01
-5.170731544494628906e-01 4.263981282711029053e-01 1.899330168962478638e-01
-1.118701398372650146e-01 2.220265865325927734e-01 -5.300846099853515625e-01
-5.521508455276489258e-01 2.935566008090972900e-01 2.681314945220947266e-01
3.947639763355255127e-01 5.470620840787887573e-02 -2.839503288269042969e-01
-8.912823349237442017e-02 1.915187984704971313e-01 -5.445719957351684570e-01
-4.163974151015281677e-02 -3.687239289283752441e-01 1.614277809858322144e-01
1.461507827043533325e-01 2.790603339672088623e-01 -2.627795040607452393e-01
4.387585520744323730e-01 4.405685514211654663e-02 -1.946196556091308594e-01
-3.563725948333740234e-01 3.582704663276672363e-01 -4.184762537479400635e-01
5.232598632574081421e-02 3.676317334175109863e-01 -1.129543483257293701e-01
4.236578047275543213e-01 -4.764560461044311523e-01 -1.379121392965316772e-01
-2.214861661195755005e-01 -1.289104968309402466e-01 -4.260065555572509766e-01
4.479935467243194580e-01 -4.469538033008575439e-01 -2.054294943809509277e-01
4.916753470897674561e-01 -6.174588575959205627e-02 -2.569989562034606934e-01
9.817322343587875366e-02 -1.764138229191303253e-02 5.674415826797485352e-01
4.208527803421020508e-01 -3.989181220531463623e-01 3.384363353252410889e-01
-2.590157389640808105e-01 -2.286479175090789795e-01 -1.525211781263351440e-01
1.178892236202955246e-02 3.717746734619140625e-01 -2.098393887281417847e-01
-7.740788906812667847e-02 -3.550387620925903320e-01 1.274418830871582031e-01
1.093152314424514771e-01 3.403089344501495361e-01 -4.394054412841796875e-02
-4.491577446460723877e-01 -2.554289065301418304e-02 2.264122962951660156e-01
-2.365959137678146362e-01 2.932301759719848633e-01 -4.894117712974548340e-01
-5.903414487838745117e-01 1.506843864917755127e-01 -1.361875087022781372e-01
3.188243508338928223e-01 -4.146577715873718262e-01 -3.052679598331451416e-01
-3.215282857418060303e-01 4.977685511112213135e-01 -1.897279405966401100e-03
-5.631995573639869690e-02 4.081839919090270996e-01 1.393346637487411499e-01
2.834078967571258545e-01 -1.830773800611495972e-01 -5.045287013053894043e-01
1.004918888211250305e-01 -3.794302046298980713e-01 3.296507596969604492e-01
3.374703526496887207e-01 -2.999390363693237305e-01 4.574566483497619629e-01
2.030815184116363525e-02 2.888885438442230225e-01 -4.010753035545349121e-01
-4.285731017589569092e-01 4.977387487888336182e-01 -8.418474346399307251e-02
3.024695813655853271e-01 -1.239003092050552368e-01 5.093808174133300781e-01
3.178972303867340088e-01 -3.535035550594329834e-01 -3.895533084869384766e-01
-1.278082281351089478e-01 4.462540447711944580e-01 -1.252613365650177002e-01
4.429495334625244141e-01 -4.407621026039123535e-01 -2.216810882091522217e-01
-2.004231512546539307e-01 9.817295521497726440e-02 5.416555404663085938e-01
-2.766170203685760498e-01 4.750629663467407227e-01 1.290387362241744995e-01
1.767242699861526489e-02 3.659010231494903564e-01 -2.215587049722671509e-01
5.722291767597198486e-02 3.345898985862731934e-01 2.173478901386260986e-01
-4.361528754234313965e-01 -6.985459476709365845e-02 1.456877738237380981e-01
-3.200880810618400574e-02 -3.094691336154937744e-01 3.535034358501434326e-01
2.025706321001052856e-01 2.576456367969512939e-01 -2.043447941541671753e-01
5.249614119529724121e-01 -3.196428418159484863e-01 -2.873764634132385254e-01
-1.969392895698547363e-01 -1.638965308666229248e-01 -4.057316482067108154e-01
5.072109773755073547e-02 -2.798238396644592285e-01 -4.340549707412719727e-01
4.543916285037994385e-01 -3.169468045234680176e-02 -2.956514060497283936e-01
