1.282653864473104477e-02 -2.621747255325317383e-01 -1.563982218503952026e-01
-2.418945170938968658e-02 -3.098141849040985107e-01 1.219667643308639526e-01
2.684847638010978699e-02 -1.356563270092010498e-01 -1.148694008588790894e-01
-3.726738691329956055e-02 -1.035256311297416687e-01 -9.625847451388835907e-03
-2.375296503305435181e-02 4.549629986286163330e-01 -7.745020836591720581e-02
-2.574541792273521423e-02 -4.623291194438934326e-01 7.742428779602050781e-02
1.690844073891639709e-02 -5.950881242752075195e-01 2.407689020037651062e-02
1.907675713300704956e-02 4.111369550228118896e-01 1.317644417285919189e-01
1.775863207876682281e-02 -3.754901289939880371e-01 -1.194977536797523499e-01
-3.698800876736640930e-02 1.613063365221023560e-02 -2.464091591536998749e-02
2.562794461846351624e-02 4.775391519069671631e-01 8.269720524549484253e-02
1.932683587074279785e-02 -5.204159617424011230e-01 6.876650452613830566e-02
-1.925780065357685089e-02 -5.118072777986526489e-02 1.586595475673675537e-01
1.310811005532741547e-02 -1.375983059406280518e-01 1.743850409984588623e-01
-2.567578107118606567e-02 -2.209380716085433960e-01 -1.334177553653717041e-01
2.719073928892612457e-02 -3.053740262985229492e-01 -7.912616431713104248e-02
-1.997784338891506195e-02 -5.738976597785949707e-01 -7.155259698629379272e-02
1.575803570449352264e-02 -5.665515065193176270e-01 6.878068298101425171e-02
-2.633282914757728577e-02 -4.148424863815307617e-01 -9.443343430757522583e-02
-1.519039180129766464e-02 -9.646522253751754761e-02 1.693906784057617188e-01
-3.163697198033332825e-02 -2.768204808235168457e-01 7.614053040742874146e-02
-3.732211142778396606e-02 -7.202876359224319458e-02 -1.221553236246109009e-02
2.091096155345439911e-02 5.287043750286102295e-02 1.598913818597793579e-01
-2.294993959367275238e-02 -8.939614892005920410e-02 -1.535636335611343384e-01
-7.956667803227901459e-03 6.821227073669433594e-01 -4.623896628618240356e-02
3.251725807785987854e-02 -1.610631048679351807e-01 7.489595562219619751e-02
1.959892548620700836e-02 5.794605612754821777e-01 7.852903008460998535e-02
2.744678594172000885e-02 -2.375569939613342285e-01 -9.425398707389831543e-02
1.788245700299739838e-02 -4.392796456813812256e-01 1.124299466609954834e-01
-3.537088632583618164e-02 -2.499914765357971191e-01 2.720437198877334595e-02
3.247896209359169006e-02 -3.753232210874557495e-02 9.335978329181671143e-02
-3.142929822206497192e-02 -4.376531839370727539e-01 -8.511404739692807198e-04
3.336378931999206543e-02 -1.357633769512176514e-01 6.934390962123870850e-02
-3.308693692088127136e-02 1.622653305530548096e-01 5.968025699257850647e-02
8.019879169296473265e-05 6.753992438316345215e-01 6.787220388650894165e-02
-3.642671182751655579e-02 7.552500814199447632e-02 -3.049316443502902985e-02
8.654906414449214935e-03 -5.240353941917419434e-01 1.182225495576858521e-01
3.389863064512610435e-03 -4.615333974361419678e-01 1.437060087919235229e-01
-2.463495731353759766e-02 6.407240033149719238e-02 1.346231698989868164e-01
-2.596954070031642914e-02 4.708316028118133545e-01 1.606415957212448120e-02
2.729276381433010101e-02 3.304759860038757324e-01 -1.043849438428878784e-01
1.540802326053380966e-02 -5.422877073287963867e-01 -7.358650863170623779e-02
2.115906402468681335e-02 5.682943463325500488e-01 -7.450783252716064453e-02
9.072653949260711670e-03 4.472251236438751221e-01 1.453472673892974854e-01
2.622428908944129944e-02 -4.206199049949645996e-01 -3.784951567649841309e-02
-1.442238315939903259e-02 2.672294974327087402e-01 1.534211635589599609e-01
1.036416739225387573e-02 1.956246197223663330e-01 -1.764923185110092163e-01
2.816196158528327942e-02 4.600490927696228027e-01 6.767155975103378296e-02
3.160317987203598022e-02 -9.920416027307510376e-02 -8.291764557361602783e-02
-3.498692810535430908e-02 3.960918635129928589e-02 5.393332988023757935e-02
-2.769489400088787079e-02 -7.643348723649978638e-02 -1.325567960739135742e-01
3.029298037290573120e-02 3.353666961193084717e-01 -8.037608116865158081e-02
1.375046838074922562e-02 2.276718169450759888e-01 1.695066690444946289e-01
3.354145586490631104e-02 3.812559545040130615e-01 1.843935810029506683e-03
-6.081124301999807358e-03 2.707919776439666748e-01 -1.763830631971359253e-01
-2.730304934084415436e-02 -3.359545767307281494e-01 -1.074887663125991821e-01
2.998825535178184509e-02 2.144870311021804810e-01 -1.007608249783515930e-01
-3.150323778390884399e-02 3.330369591712951660e-01 -2.492486126720905304e-02
2.721060439944267273e-02 -3.340111374855041504e-01 8.291840553283691406e-02
1.233471650630235672e-02 7.114542126655578613e-01 2.412588801234960556e-04
1.132712420076131821e-02 -1.496260464191436768e-01 1.767912954092025757e-01
-8.938279002904891968e-03 -7.245676964521408081e-02 1.817239075899124146e-01
-3.480676561594009399e-02 -2.611075937747955322e-01 -4.791156575083732605e-02
2.649830654263496399e-02 4.797197282314300537e-01 7.498215138912200928e-02
-3.076272457838058472e-02 -1.830818057060241699e-01 -1.069872602820396423e-01
-2.289369516074657440e-02 -1.421604007482528687e-01 1.431777179241180420e-01
3.473724797368049622e-02 3.072795271873474121e-01 -2.289135940372943878e-02
2.701640129089355469e-02 5.528913140296936035e-01 -6.679829210042953491e-03
8.178211748600006104e-03 -6.607909798622131348e-01 4.386923089623451233e-02
2.401408925652503967e-02 -4.773460626602172852e-01 -2.784910053014755249e-02
-2.064846642315387726e-02 -5.415490865707397461e-01 -8.346958458423614502e-02
3.732658457010984421e-03 -5.924318432807922363e-01 1.028280779719352722e-01
-3.617070987820625305e-02 -5.594694614410400391e-02 -5.438779667019844055e-02
-2.660007029771804810e-02 4.226101040840148926e-01 -6.227040290832519531e-02
3.165173158049583435e-02 3.733178377151489258e-01 6.166960671544075012e-02
-1.512672845274209976e-02 -5.994102358818054199e-01 -8.153019100427627563e-02
-2.892100252211093903e-02 5.962543189525604248e-02 -1.235386505722999573e-01
-2.226636186242103577e-02 3.381711840629577637e-01 1.103786155581474304e-01
3.413956612348556519e-02 -1.607457548379898071e-01 -3.464563190937042236e-02
-3.368478640913963318e-02 -7.755049318075180054e-02 7.514885812997817993e-02
-1.422145962715148926e-02 -6.640392541885375977e-01 -4.041171073913574219e-02
-3.663799166679382324e-02 5.970241129398345947e-02 1.134295202791690826e-02
-1.730952039361000061e-02 7.464074343442916870e-02 -1.706941872835159302e-01
-2.605712786316871643e-02 -9.865133091807365417e-03 1.303541064262390137e-01
-1.883381605148315430e-02 -5.769570469856262207e-01 -7.643919438123703003e-02
-1.824440248310565948e-02 5.049563646316528320e-01 8.237969875335693359e-02
1.725220307707786560e-02 -4.701318144798278809e-01 -9.405372291803359985e-02
-3.372249379754066467e-02 -3.549050092697143555e-01 -2.285970002412796021e-02
-2.217487990856170654e-02 -6.017667055130004883e-01 2.612468786537647247e-02
1.243992056697607040e-02 6.099914908409118652e-01 -9.566369652748107910e-02
1.504747103899717331e-02 4.411230087280273438e-01 -1.372785121202468872e-01
1.870895549654960632e-02 -4.466801285743713379e-01 1.058888360857963562e-01
-2.202886901795864105e-02 4.281128048896789551e-01 8.676657825708389282e-02
-2.355598844587802887e-02 -3.022858202457427979e-01 -1.326049864292144775e-01
-3.221262991428375244e-02 -6.374295055866241455e-02 -1.024301350116729736e-01
3.336836025118827820e-02 -1.550161540508270264e-01 6.454353034496307373e-02
-7.562736514955759048e-03 7.010348439216613770e-01 -5.072239786386489868e-03
-3.604993596673011780e-02 -1.267890334129333496e-01 -5.276830121874809265e-02
-3.233277052640914917e-02 2.577263414859771729e-01 -5.767864733934402466e-02
-2.790053188800811768e-02 2.098430097103118896e-01 1.001792475581169128e-01
-3.374065458774566650e-02 -7.992651313543319702e-02 -8.768420666456222534e-02
-2.328604087233543396e-02 5.297261476516723633e-01 -8.147422224283218384e-03
-3.383717313408851624e-02 2.484124600887298584e-01 -2.002026513218879700e-02
-3.728925809264183044e-02 -2.283775992691516876e-02 -5.784897133708000183e-03
-1.578468829393386841e-02 5.989403128623962402e-01 -6.233426928520202637e-02
-8.501621894538402557e-03 6.897092461585998535e-01 1.703687012195587158e-02
-3.017640858888626099e-02 1.000179424881935120e-01 9.806120395660400391e-02
1.902096718549728394e-02 -7.310817390680313110e-02 1.634176969528198242e-01
1.977049931883811951e-02 -3.347839713096618652e-01 -1.196919754147529602e-01
4.598353058099746704e-03 1.981816440820693970e-01 1.813867390155792236e-01
-3.116541728377342224e-02 -4.075758755207061768e-01 4.034521430730819702e-02
4.794628825038671494e-03 -5.111982226371765137e-01 1.293871998786926270e-01
-2.414643019437789917e-02 -5.742129683494567871e-01 -2.993744425475597382e-02
2.092091739177703857e-02 -3.822143971920013428e-01 -1.018867641687393188e-01
-3.416821733117103577e-02 -3.436864316463470459e-01 7.254796801134943962e-04
-1.853429339826107025e-02 -1.811433434486389160e-01 1.566275507211685181e-01
-3.274725750088691711e-02 1.176636517047882080e-01 7.212274521589279175e-02
1.976667717099189758e-02 3.626188933849334717e-01 1.383731812238693237e-01
-2.724078856408596039e-02 -1.326542943716049194e-01 1.226699873805046082e-01
1.463368535041809082e-02 -4.705474972724914551e-01 1.166851669549942017e-01
3.443275019526481628e-02 3.376759588718414307e-01 -1.085187960416078568e-02
-3.465816006064414978e-02 6.297249346971511841e-03 -7.614930719137191772e-02
1.141214091330766678e-02 4.675622284412384033e-01 -1.402376592159271240e-01
2.827900834381580353e-02 -2.082304507493972778e-01 -9.372930228710174561e-02
2.131175249814987183e-02 -2.307553030550479889e-02 -1.503395438194274902e-01
2.825313247740268707e-02 3.446530401706695557e-01 -9.519517421722412109e-02
-9.292500908486545086e-04 6.634325385093688965e-01 7.376660406589508057e-02
-2.304715663194656372e-02 -1.767503321170806885e-01 1.406641155481338501e-01
-9.789492003619670868e-03 -3.177526295185089111e-01 1.635691523551940918e-01
-2.150662988424301147e-02 3.939448595046997070e-01 1.006769388914108276e-01
2.682870626449584961e-02 -3.153004348278045654e-01 9.247253090143203735e-02
1.745742373168468475e-02 8.054557442665100098e-02 -1.647031903266906738e-01
2.695143967866897583e-02 -4.328092634677886963e-01 -2.433736575767397881e-03
-3.593908250331878662e-02 1.025489270687103271e-01 -3.787030279636383057e-02
-1.731206290423870087e-02 -4.636736810207366943e-01 1.204954385757446289e-01
-1.315848529338836670e-02 1.885635852813720703e-01 -1.736977845430374146e-01
3.395080938935279846e-02 1.081179082393646240e-01 -7.087764889001846313e-02
2.229402586817741394e-02 -3.751973062753677368e-02 1.538133323192596436e-01
1.875173300504684448e-02 -4.853645339608192444e-03 -1.600063890218734741e-01
-2.973965741693973541e-02 2.176747173070907593e-01 8.395410329103469849e-02
2.079758979380130768e-02 -3.712473213672637939e-01 1.170974820852279663e-01
-2.409308776259422302e-02 -1.795412600040435791e-01 -1.441774815320968628e-01
-2.484966255724430084e-02 9.745439887046813965e-02 1.314107328653335571e-01
-3.150433301925659180e-02 -2.842043638229370117e-01 -8.588121831417083740e-02
-3.208625316619873047e-02 2.746042981743812561e-02 8.810707181692123413e-02
-3.470272198319435120e-02 -2.668167054653167725e-01 -4.804266616702079773e-02
-2.157924696803092957e-02 2.738601863384246826e-01 -1.390493810176849365e-01
2.090998925268650055e-02 -3.473683893680572510e-01 1.223316490650177002e-01
2.834676392376422882e-02 1.565334200859069824e-01 -1.159441769123077393e-01
2.320518344640731812e-02 2.861185073852539062e-01 1.369481831789016724e-01
-2.790031582117080688e-02 4.350283741950988770e-01 -1.931522972881793976e-02
7.682203315198421478e-03 2.257785499095916748e-01 1.774351149797439575e-01
-3.100123070180416107e-02 -3.694039583206176758e-01 5.919579043984413147e-02
2.231172472238540649e-02 5.993763804435729980e-01 4.622275009751319885e-02
-1.772740297019481659e-02 4.402819871902465820e-01 -1.207273602485656738e-01
1.702231727540493011e-02 6.507285833358764648e-01 -5.241776257753372192e-02
1.380361523479223251e-02 5.317059159278869629e-01 -1.189703494310379028e-01
-4.946737084537744522e-03 5.465079545974731445e-01 -1.260440498590469360e-01
-3.451733663678169250e-02 -3.245783448219299316e-01 8.225712925195693970e-03
2.899556234478950500e-02 4.351595342159271240e-01 -6.434640288352966309e-02
-2.130044996738433838e-02 -5.812545418739318848e-01 5.543172359466552734e-02
2.027057483792304993e-02 -1.641221344470977783e-03 1.617419421672821045e-01
3.550418093800544739e-02 2.143292725086212158e-01 -3.699185326695442200e-02
3.264581784605979919e-02 -2.347645610570907593e-01 -3.354986757040023804e-02
-2.144504338502883911e-02 2.948065698146820068e-01 1.233340054750442505e-01
-2.746375836431980133e-02 -4.254245460033416748e-01 -8.274953812360763550e-02
2.412002161145210266e-02 -2.017861045897006989e-02 1.470502912998199463e-01
1.959794946014881134e-02 3.291564583778381348e-01 1.440836191177368164e-01
-3.125048428773880005e-02 -2.017872482538223267e-01 -1.011910289525985718e-01
-7.208247552625834942e-04 -4.751928150653839111e-01 -1.382690072059631348e-01
2.691547386348247528e-02 -4.348719120025634766e-01 1.017572917044162750e-02
7.152055390179157257e-03 3.001724779605865479e-01 -1.722097396850585938e-01
2.232411131262779236e-02 3.888766281306743622e-03 1.547636538743972778e-01
1.983527094125747681e-02 -3.857105076313018799e-01 -1.069196686148643494e-01
3.273313492536544800e-02 9.626349806785583496e-02 9.452653676271438599e-02
2.762633003294467926e-02 4.948101341724395752e-01 -5.299504473805427551e-02
-2.566458284854888916e-02 1.561808586120605469e-01 -1.346105933189392090e-01
-2.778854407370090485e-02 -4.891350865364074707e-01 -4.989369958639144897e-02
2.655950561165809631e-02 2.627697885036468506e-01 1.242343485355377197e-01
1.595208980143070221e-02 -3.076265156269073486e-01 -1.402569711208343506e-01
-2.012314833700656891e-02 1.047910749912261963e-01 -1.612342000007629395e-01
1.849480532109737396e-02 1.668248623609542847e-01 -1.591960638761520386e-01
2.639410458505153656e-02 -4.266636371612548828e-01 -2.971098758280277252e-02
3.244390338659286499e-02 1.507312804460525513e-01 9.464074671268463135e-02
3.665319457650184631e-02 -3.434494882822036743e-02 1.111784367822110653e-04
3.626479208469390869e-02 7.148391753435134888e-02 4.688270390033721924e-02
-3.324746619910001755e-03 -1.259529143571853638e-01 1.855396181344985962e-01
-1.211771927773952484e-02 -1.345933526754379272e-01 -1.788034737110137939e-01
3.128851205110549927e-02 -2.829162776470184326e-01 5.011634901165962219e-02
-1.794671639800071716e-02 -5.934590697288513184e-01 7.142192125320434570e-02
-9.240301325917243958e-03 -2.753266096115112305e-01 -1.705254018306732178e-01
3.407834097743034363e-02 -9.006009250879287720e-02 6.833826005458831787e-02
-3.555337712168693542e-02 1.952018402516841888e-02 -6.205708533525466919e-02
3.400788456201553345e-02 2.340283244848251343e-02 -6.907854229211807251e-02
-1.328418310731649399e-02 -9.820174425840377808e-03 1.744469404220581055e-01
5.425676237791776657e-03 -1.886017173528671265e-01 -1.777743548154830933e-01
-1.884782128036022186e-02 -3.701303899288177490e-01 -1.384054273366928101e-01
-2.728773653507232666e-02 4.375030398368835449e-01 -3.849763423204421997e-02
-3.588285669684410095e-02 1.422607749700546265e-01 -7.320187054574489594e-03
9.881771169602870941e-03 -3.515836000442504883e-01 1.564319580793380737e-01
3.005022183060646057e-02 -3.065798878669738770e-01 -4.522601887583732605e-02
-3.146229684352874756e-02 -2.895777858793735504e-02 -1.086610928177833557e-01
-1.671265810728073120e-02 -5.562254190444946289e-01 9.419187158346176147e-02
1.001701597124338150e-02 -4.444240331649780273e-01 -1.292967051267623901e-01
1.082311500795185566e-03 -1.432067155838012695e-01 1.857661008834838867e-01
-2.987836487591266632e-02 -3.941805362701416016e-01 6.351839751005172729e-02
3.686911612749099731e-02 1.394548714160919189e-01 -1.044690050184726715e-02
-3.078051842749118805e-02 -4.542089700698852539e-01 4.715763032436370850e-03
-3.551768511533737183e-02 -2.784645259380340576e-01 -8.814454078674316406e-03
-2.166424505412578583e-02 -6.172029376029968262e-01 1.580231357365846634e-03
-3.524415194988250732e-02 -2.595322728157043457e-01 -3.829599171876907349e-02
-2.315177023410797119e-02 -5.280365943908691406e-01 7.025811821222305298e-02
3.186241537332534790e-02 3.955864012241363525e-01 -4.250096157193183899e-02
3.379767760634422302e-02 -2.246044725179672241e-01 5.444125272333621979e-03
3.498222306370735168e-02 -1.046881750226020813e-01 -3.546028584241867065e-02
-2.209559641778469086e-02 5.396940708160400391e-01 -3.611621260643005371e-02
-3.088243305683135986e-02 1.493337005376815796e-01 -1.007442772388458252e-01
-3.131460398435592651e-02 -1.510970592498779297e-01 9.421753138303756714e-02
-9.778582490980625153e-03 1.422549486160278320e-01 1.756351441144943237e-01
-2.152436040341854095e-02 -4.209962189197540283e-01 -1.182707399129867554e-01
2.970717474818229675e-02 4.475799202919006348e-01 5.538757517933845520e-02
2.072096616029739380e-02 8.775040507316589355e-02 1.599686592817306519e-01
-3.437456861138343811e-02 1.760490238666534424e-01 3.441068902611732483e-02
1.745596900582313538e-02 5.254509449005126953e-01 -1.089802011847496033e-01
2.320764027535915375e-02 2.411215007305145264e-01 1.420065611600875854e-01
-1.103194057941436768e-02 6.698718667030334473e-01 -3.356974199414253235e-02
3.513362258672714233e-02 -4.536534845829010010e-02 5.902162566781044006e-02
2.704050205647945404e-02 3.797118365764617920e-01 -9.659808129072189331e-02
3.035137616097927094e-02 -2.982993125915527344e-01 -4.446639120578765869e-02
1.302605308592319489e-02 -2.786224186420440674e-01 -1.535883694887161255e-01
1.760328747332096100e-02 -5.872341990470886230e-01 -9.871123358607292175e-03
-1.715112291276454926e-02 -4.182978570461273193e-01 -1.338139027357101440e-01
3.110161423683166504e-02 3.960124850273132324e-01 -5.397196859121322632e-02
-3.730005398392677307e-02 -2.719045616686344147e-02 -9.447906166315078735e-03
-2.295771613717079163e-02 4.567764997482299805e-01 6.827624142169952393e-02
2.277837321162223816e-02 5.920224785804748535e-01 -4.651702940464019775e-02
-9.202497079968452454e-03 2.234637588262557983e-01 1.700312793254852295e-01
3.665247559547424316e-02 1.933773458003997803e-01 1.426486996933817863e-03
-2.231142669916152954e-02 -3.736310899257659912e-01 1.201853677630424500e-01
-1.997448317706584930e-02 3.954674899578094482e-01 1.086783483624458313e-01
2.837912365794181824e-02 -3.886752724647521973e-01 3.488333895802497864e-02
-1.484764460474252701e-02 5.942088961601257324e-01 5.884104967117309570e-02
-3.407989069819450378e-02 -1.469489485025405884e-01 6.740860641002655029e-02
-3.056349977850914001e-02 -7.950653135776519775e-02 1.028512790799140930e-01
-3.027017973363399506e-02 -3.387016057968139648e-01 7.592182606458663940e-02
2.416385710239410400e-02 4.488655626773834229e-01 -9.831438213586807251e-02
-2.664773538708686829e-02 -2.832738459110260010e-01 1.126011833548545837e-01
-2.883721515536308289e-02 -2.892678380012512207e-01 -1.062808781862258911e-01
1.400299556553363800e-02 2.749904990196228027e-01 -1.634548455476760864e-01
-2.413128502666950226e-02 3.201270699501037598e-01 1.035277321934700012e-01
3.462229296565055847e-02 8.921469002962112427e-02 -6.282048672437667847e-02
-2.244107238948345184e-02 -4.601010382175445557e-01 -1.036417558789253235e-01
1.319983229041099548e-02 3.289330601692199707e-01 -1.593499332666397095e-01
-1.855202205479145050e-02 -4.557509422302246094e-01 1.180189028382301331e-01
-2.837341278791427612e-02 2.097146809101104736e-01 -1.113000363111495972e-01
1.133279502391815186e-02 -5.747445821762084961e-01 8.935235440731048584e-02
1.800997927784919739e-02 -5.770587921142578125e-01 -2.013053186237812042e-02
2.938509173691272736e-02 5.037540197372436523e-01 9.204950183629989624e-03
-1.745673455297946930e-02 -2.433200478553771973e-01 1.550614088773727417e-01
3.087068535387516022e-02 3.975458145141601562e-01 6.256294250488281250e-02
2.772096730768680573e-02 2.594052553176879883e-01 -1.116162911057472229e-01
-1.616682298481464386e-02 8.428562432527542114e-03 1.673360764980316162e-01
-1.498293597251176834e-02 2.046059817075729370e-01 -1.684472113847732544e-01
-2.257235534489154816e-02 -4.707469940185546875e-01 -9.968844056129455566e-02
-3.589978441596031189e-02 -2.268255650997161865e-01 -3.312151134014129639e-02
3.340506926178932190e-02 -1.717123985290527344e-01 -4.509841650724411011e-02
-2.477131597697734833e-02 -4.756683409214019775e-01 7.992510497570037842e-02
-2.566079422831535339e-02 4.193443357944488525e-01 5.912485346198081970e-02
3.318646922707557678e-02 -2.217714488506317139e-01 -2.788745239377021790e-02
1.955487951636314392e-02 -4.533017575740814209e-01 -8.678864687681198120e-02
-2.230201102793216705e-02 4.375774264335632324e-01 -9.641981869935989380e-02
5.647268146276473999e-03 -2.581346333026885986e-01 -1.703905612230300903e-01
-3.087694011628627777e-02 -1.038891673088073730e-01 9.993211179971694946e-02
2.349198423326015472e-02 -4.039843976497650146e-01 9.000733494758605957e-02
2.591168321669101715e-02 -3.240944147109985352e-01 -8.447429537773132324e-02
2.651249058544635773e-02 1.416813731193542480e-01 1.347272694110870361e-01
-2.331615239381790161e-02 5.255607366561889648e-01 8.640643209218978882e-03
2.382697165012359619e-02 2.085688263177871704e-01 -1.368114352226257324e-01
2.871732786297798157e-02 2.851187288761138916e-01 1.083864122629165649e-01
3.145652264356613159e-02 -2.344749420881271362e-01 -5.429361015558242798e-02
5.912902299314737320e-03 -6.284758448600769043e-01 8.019108325242996216e-02
1.102041173726320267e-02 -6.184167861938476562e-01 6.463070213794708252e-02
3.297334164381027222e-02 2.361320704221725464e-01 8.010178804397583008e-02
-3.050624765455722809e-02 -4.131777286529541016e-01 4.785820841789245605e-02
3.535093367099761963e-02 1.781995147466659546e-01 -4.622315615415573120e-02
-2.249548770487308502e-02 5.405583381652832031e-01 -2.219856344163417816e-02
2.277904190123081207e-02 -4.531009793281555176e-01 7.472854107618331909e-02
8.266312070190906525e-03 2.593467235565185547e-01 -1.748473197221755981e-01
2.494042553007602692e-02 4.093151390552520752e-01 1.071186065673828125e-01
3.506756573915481567e-02 -1.562586426734924316e-01 1.966991089284420013e-02
-1.071352697908878326e-02 4.471694529056549072e-01 1.309379637241363525e-01
8.186538703739643097e-03 -6.752312779426574707e-01 -5.367988720536231995e-03
8.416929282248020172e-03 -4.630037583410739899e-03 1.857125610113143921e-01
3.615063056349754333e-02 2.008214443922042847e-01 -2.352366223931312561e-02
2.597541362047195435e-02 -3.071756064891815186e-01 1.015140786767005920e-01
-6.685041356831789017e-03 6.509566307067871094e-01 6.640467792749404907e-02
3.553115576505661011e-02 -1.287080049514770508e-01 1.778923906385898590e-02
2.229016460478305817e-02 -4.597587883472442627e-01 -6.277279555797576904e-02
3.117984905838966370e-02 -3.108552694320678711e-01 -1.722985506057739258e-02
2.810406871140003204e-02 -3.866381049156188965e-01 4.364804551005363464e-02
-1.922400109469890594e-02 -1.580778211355209351e-01 1.557775288820266724e-01
1.713426783680915833e-02 4.567855298519134521e-01 -1.278162002563476562e-01
3.623948618769645691e-02 2.072966396808624268e-01 -1.821716874837875366e-02
2.521525695919990540e-02 5.618926882743835449e-01 4.171443358063697815e-02
3.519758582115173340e-02 2.140203714370727539e-01 5.324802547693252563e-02
3.376765921711921692e-02 -1.225859299302101135e-01 6.641864776611328125e-02
-1.666859723627567291e-02 -6.510000824928283691e-01 -3.596640005707740784e-02
-2.171132154762744904e-02 4.761716723442077637e-01 -8.530321717262268066e-02
-8.548744022846221924e-03 -5.821701884269714355e-01 -1.039394140243530273e-01
3.461473435163497925e-02 2.227288484573364258e-01 6.134048849344253540e-02
-3.441210091114044189e-02 -3.241461813449859619e-01 1.421318296343088150e-02
-1.461183745414018631e-02 -3.039294779300689697e-01 -1.591314524412155151e-01
-3.438101708889007568e-02 -3.302111029624938965e-01 8.998148143291473389e-03
3.382083028554916382e-02 -2.123111635446548462e-01 2.875108644366264343e-02
1.037158817052841187e-02 2.365603148937225342e-01 -1.736958920955657959e-01
-1.490244455635547638e-02 6.210470795631408691e-01 3.698328509926795959e-02
-1.596479304134845734e-02 -1.330425739288330078e-01 1.662684679031372070e-01
-2.786089852452278137e-02 -4.402006566524505615e-01 -7.386060059070587158e-02
1.598836854100227356e-02 5.803511738777160645e-01 -9.574434906244277954e-02
-2.775870962068438530e-03 1.622767895460128784e-01 -1.867408901453018188e-01
1.703092828392982483e-02 3.929485380649566650e-01 1.412062644958496094e-01
3.194656223058700562e-02 2.430747598409652710e-01 -8.097549527883529663e-02
-2.691438421607017517e-02 3.158283233642578125e-01 -9.999888390302658081e-02
-3.280317038297653198e-02 -3.416618704795837402e-01 4.395477101206779480e-02
1.908374391496181488e-02 -3.907086849212646484e-01 1.204889193177223206e-01
2.885629236698150635e-02 -1.355504691600799561e-01 -1.012212783098220825e-01
3.637354448437690735e-02 5.625020712614059448e-02 4.399452358484268188e-02
-2.193125709891319275e-02 -6.199156492948532104e-02 -1.579503417015075684e-01
-1.676251180469989777e-02 -4.084788262844085693e-01 1.342819780111312866e-01
-6.916647776961326599e-03 2.475883066654205322e-02 1.844200491905212402e-01
-2.896788157522678375e-02 3.623366057872772217e-01 4.540391638875007629e-02
-3.328478336334228516e-02 8.392909914255142212e-02 -8.577935397624969482e-02
1.168386172503232956e-02 -5.654284954071044922e-01 -8.206434547901153564e-02
2.132358402013778687e-02 -5.381166934967041016e-01 1.429782435297966003e-02
3.170556202530860901e-02 -2.838852107524871826e-01 -2.535163797438144684e-02
-3.166523203253746033e-02 -1.152084395289421082e-01 -1.051634997129440308e-01
-2.896166220307350159e-02 -1.326868534088134766e-01 -1.229868158698081970e-01
3.562919422984123230e-02 7.119753211736679077e-02 5.939619243144989014e-02
-1.593936048448085785e-02 -2.154637277126312256e-01 1.615130603313446045e-01
3.581122308969497681e-02 -7.548563182353973389e-02 3.692684322595596313e-02
-3.255392611026763916e-02 -4.028831422328948975e-01 -1.121725048869848251e-02
-1.536761224269866943e-02 -6.165685057640075684e-01 7.171423733234405518e-02
-3.614365682005882263e-02 -3.993695974349975586e-02 -5.478855222463607788e-02
2.702425979077816010e-02 2.860643863677978516e-01 -1.126579344272613525e-01
-3.346223756670951843e-02 1.633544266223907471e-02 -8.946497738361358643e-02
-3.227497264742851257e-02 9.295864403247833252e-02 8.042678982019424438e-02
2.150526270270347595e-02 6.240597963333129883e-01 -3.175118938088417053e-02
2.631454542279243469e-02 2.394928932189941406e-01 1.281686872243881226e-01
-2.085428684949874878e-02 -2.759152650833129883e-01 1.405915766954421997e-01
1.825055666267871857e-02 5.620691776275634766e-01 -9.323880076408386230e-02
-1.267676614224910736e-02 5.834488868713378906e-01 -9.089548140764236450e-02
3.199002146720886230e-02 -2.263213545083999634e-01 6.334697455167770386e-02
-3.559938818216323853e-02 -2.472401857376098633e-01 -3.350123763084411621e-02
3.256348893046379089e-02 -1.756622344255447388e-01 7.069799304008483887e-02
-3.220723569393157959e-02 -1.872872710227966309e-01 8.345135301351547241e-02
3.634148091077804565e-02 -5.813610553741455078e-02 2.220358140766620636e-02
3.618331998586654663e-02 8.635152876377105713e-02 -3.666661679744720459e-02
3.279234096407890320e-02 -2.405892908573150635e-01 -2.663259021937847137e-02
-2.021201886236667633e-02 5.648275017738342285e-01 2.527923323214054108e-02
-1.966486871242523193e-02 -3.293491303920745850e-01 1.380407065153121948e-01
4.470138228498399258e-04 -3.731970191001892090e-01 1.622945666313171387e-01
3.473719209432601929e-02 -1.792134344577789307e-01 6.231107749044895172e-03
-2.916952595114707947e-02 -3.628602027893066406e-01 7.982002943754196167e-02
3.067131387069821358e-03 -9.302861988544464111e-02 1.875377893447875977e-01
1.405597105622291565e-02 6.951525807380676270e-02 1.770956069231033325e-01
3.096494264900684357e-02 4.154051244258880615e-01 5.352839455008506775e-02
6.252546794712543488e-03 7.298592925071716309e-01 -1.396574359387159348e-02
-1.223952043801546097e-03 -7.046416997909545898e-01 -2.299149520695209503e-02
3.167267143726348877e-02 4.223482012748718262e-01 3.664168715476989746e-02
-1.220321841537952423e-02 -3.087098300457000732e-01 -1.626731753349304199e-01
2.844154089689254761e-02 4.402265548706054688e-01 -6.821284443140029907e-02
-2.887182123959064484e-02 1.749206632375717163e-01 -1.129595488309860229e-01
-3.459393605589866638e-02 -2.993858158588409424e-01 -3.628245368599891663e-02
-2.186970598995685577e-02 5.098752379417419434e-01 5.029727891087532043e-02
-2.909613959491252899e-02 -1.139701157808303833e-02 -1.248770877718925476e-01
6.049028597772121429e-04 -1.843422204256057739e-01 1.833171993494033813e-01
-3.457536548376083374e-02 -2.302505373954772949e-01 -6.066078692674636841e-02
2.204972878098487854e-02 -3.768230080604553223e-01 -9.661449491977691650e-02
3.635127097368240356e-02 1.478253602981567383e-01 -2.852508611977100372e-02
-2.769132517278194427e-02 -3.126294612884521484e-01 -1.095857620239257812e-01
3.049046918749809265e-02 3.622553944587707520e-01 7.837346196174621582e-02
2.669628709554672241e-02 -3.904254436492919922e-01 -5.013039708137512207e-02
1.718443073332309723e-02 6.376716494560241699e-01 -6.105996668338775635e-02
-2.472623065114021301e-02 1.033310592174530029e-01 1.315846145153045654e-01
-2.113532461225986481e-02 6.575024873018264771e-02 1.495618224143981934e-01
-3.292685374617576599e-02 -2.027756161987781525e-02 8.244554698467254639e-02
-3.462346643209457397e-02 1.360608935356140137e-01 -5.839316919445991516e-02
2.056657895445823669e-02 -1.742762178182601929e-01 1.510490328073501587e-01
-1.887377165257930756e-02 1.715916693210601807e-01 -1.606996208429336548e-01
3.001691214740276337e-02 2.880255505442619324e-02 1.162954270839691162e-01
2.721579000353813171e-02 -2.560301683843135834e-02 -1.220524981617927551e-01
2.636079303920269012e-02 6.995930522680282593e-02 1.376625895500183105e-01
-1.095030270516872406e-02 -2.262580394744873047e-01 -1.736969053745269775e-01
-2.109050005674362183e-02 5.159409642219543457e-01 5.470251291990280151e-02
-2.152108773589134216e-02 4.170487523078918457e-01 9.374304860830307007e-02
2.368471957743167877e-02 -4.489599764347076416e-01 -5.416378006339073181e-02
-3.532046824693679810e-02 -2.858403325080871582e-01 5.658162757754325867e-03
-4.183670971542596817e-03 -1.819385290145874023e-01 1.820450276136398315e-01
2.531132474541664124e-02 1.880114078521728516e-01 -1.311423778533935547e-01
-3.089387156069278717e-02 3.522004783153533936e-01 -2.506307512521743774e-02
-3.211423754692077637e-02 -1.389454603195190430e-01 8.815601468086242676e-02
-2.112822793424129486e-02 5.056804418563842773e-01 6.031109765172004700e-02
-3.732369467616081238e-02 -8.086745440959930420e-02 -6.754463538527488708e-03
2.934831194579601288e-02 5.022683739662170410e-01 1.601007580757141113e-02
-3.421884030103683472e-02 1.183875575661659241e-01 -6.886889785528182983e-02
-1.785989850759506226e-02 3.980252444744110107e-01 1.180307641625404358e-01
-7.734813843853771687e-04 -5.280020236968994141e-01 1.289508491754531860e-01
2.003867365419864655e-02 -4.213885068893432617e-01 1.068785786628723145e-01
3.129373118281364441e-02 2.349462658166885376e-01 9.627515822649002075e-02
-2.415277436375617981e-02 3.882894515991210938e-01 8.479230850934982300e-02
-1.144548971205949783e-02 6.581935882568359375e-01 -4.552520066499710083e-02
-3.384045511484146118e-02 -2.933714389801025391e-01 -5.474306270480155945e-02
-6.859145592898130417e-03 6.742077469825744629e-01 -6.038864329457283020e-02
-3.409256041049957275e-02 -3.244127929210662842e-01 -3.540157526731491089e-02
-2.844000980257987976e-02 -5.046368837356567383e-01 -2.174931205809116364e-02
3.277939558029174805e-02 3.592464029788970947e-01 -4.296825826168060303e-02
3.559986129403114319e-02 -1.280961483716964722e-01 6.991558708250522614e-03
1.902303844690322876e-02 4.327341020107269287e-01 1.274296194314956665e-01
3.346122056245803833e-02 2.319946289062500000e-01 7.522766292095184326e-02
1.946907304227352142e-02 -5.648094415664672852e-01 -3.023235825821757317e-03
3.185643348842859268e-03 3.546525835990905762e-01 1.645743697881698608e-01
-1.570193469524383545e-02 -6.727643013000488281e-01 3.634521970525383949e-03
1.311995368450880051e-02 -6.086773872375488281e-01 5.774848908185958862e-02
2.339556626975536346e-02 -3.110178112983703613e-01 1.173554509878158569e-01
-3.511673212051391602e-02 1.890554577112197876e-01 -5.399770103394985199e-03
-1.860252209007740021e-02 5.452170502394437790e-03 1.603453755378723145e-01
3.349096700549125671e-02 9.920667856931686401e-02 -7.624731212854385376e-02
1.160625834017992020e-02 -4.579902291297912598e-01 -1.211536973714828491e-01
-1.746661216020584106e-02 5.684836506843566895e-01 -6.973576545715332031e-02
-3.358194977045059204e-02 2.616493999958038330e-01 -1.406936347484588623e-02
2.163926884531974792e-02 4.710534214973449707e-01 1.078040897846221924e-01
-2.066017128527164459e-02 3.205417692661285400e-01 -1.351782381534576416e-01
3.632474318146705627e-02 1.538118869066238403e-01 -2.840597182512283325e-02
-2.573203854262828827e-02 2.760724723339080811e-01 -1.171581670641899109e-01
2.829559147357940674e-02 -3.467104434967041016e-01 -5.131703987717628479e-02
-1.518999692052602768e-02 -2.804612182080745697e-02 1.701863259077072144e-01
-2.798282168805599213e-02 -4.207866787910461426e-01 7.317614555358886719e-02
-2.393959835171699524e-02 -2.421078979969024658e-01 -1.388751417398452759e-01
-3.708655387163162231e-02 -1.328742951154708862e-01 3.668956691399216652e-03
-3.297049179673194885e-02 7.614592462778091431e-02 7.521209865808486938e-02
2.413115650415420532e-02 -3.438197374343872070e-01 -9.226512163877487183e-02
2.163751609623432159e-02 -2.496162056922912598e-01 1.373926848173141479e-01
-3.170053288340568542e-02 -3.322596251964569092e-01 6.251554936170578003e-02
-5.292267072945833206e-03 5.667138695716857910e-01 -1.189955547451972961e-01
2.832482568919658661e-02 -4.019587934017181396e-01 7.442963309586048126e-03
-1.627587899565696716e-02 2.224915772676467896e-01 1.534714996814727783e-01
2.164255827665328979e-02 -4.218682348728179932e-01 9.690098464488983154e-02
1.523815281689167023e-02 1.068562120199203491e-01 -1.702218651771545410e-01
1.381071377545595169e-02 -4.056815803050994873e-01 1.366452872753143311e-01
-2.667662128806114197e-02 -5.428777933120727539e-01 -1.143404189497232437e-02
-3.619486466050148010e-02 1.192372068762779236e-01 -5.915610119700431824e-03
-1.524800155311822891e-02 5.447348356246948242e-01 -9.624503552913665771e-02
-3.283957019448280334e-02 2.473247647285461426e-01 -5.284780263900756836e-02
-3.610175102949142456e-02 8.289922773838043213e-02 2.335923351347446442e-02
3.012692555785179138e-02 -2.731992602348327637e-01 7.229249924421310425e-02
-3.395109251141548157e-02 -3.522503674030303955e-01 2.057927660644054413e-03
2.601292217150330544e-03 -3.956111073493957520e-01 1.576450616121292114e-01
-2.456728927791118622e-02 2.275351434946060181e-01 1.184178814291954041e-01
-2.043382078409194946e-02 2.878239937126636505e-02 -1.629580557346343994e-01
3.354253247380256653e-02 2.951571941375732422e-01 6.058039143681526184e-02
2.579075843095779419e-02 1.341598927974700928e-01 -1.312716901302337646e-01
-2.983954921364784241e-02 2.071750015020370483e-01 8.517054468393325806e-02
-3.401305153965950012e-02 -3.509317636489868164e-01 -4.775810986757278442e-03
-3.666012734174728394e-02 -1.126540601253509521e-01 2.619505487382411957e-02
-2.646218240261077881e-02 3.977705538272857666e-01 6.033763661980628967e-02
-2.057266794145107269e-02 -1.697726696729660034e-01 1.506006270647048950e-01
-1.872416026890277863e-02 -6.465203166007995605e-01 1.201938744634389877e-02
-2.989723533391952515e-02 2.157466858625411987e-01 -9.818570315837860107e-02
-1.211556140333414078e-02 6.129069924354553223e-01 -7.774274051189422607e-02
3.429218754172325134e-02 2.829556763172149658e-01 -4.316038638353347778e-02
-1.686148159205913544e-02 5.934204459190368652e-01 -5.670050904154777527e-02
2.830462530255317688e-02 -1.835619807243347168e-01 1.101583093404769897e-01
3.712198510766029358e-02 7.855556905269622803e-02 1.167822256684303284e-02
-2.465542964637279510e-02 5.033937096595764160e-01 2.811670769006013870e-03
3.406105563044548035e-02 -1.626821905374526978e-01 4.971480369567871094e-02
2.540140785276889801e-02 -2.691363915801048279e-04 -1.330620646476745605e-01
-2.948910742998123169e-02 3.964999914169311523e-01 -3.442430635914206505e-03
-4.029717762023210526e-03 6.587883830070495605e-01 -8.059494197368621826e-02
-3.077395074069499969e-02 -3.304162621498107910e-01 -8.207529783248901367e-02
1.994435116648674011e-02 -2.277255505323410034e-01 1.472668796777725220e-01
1.479791570454835892e-02 -1.365465223789215088e-01 -1.645979881286621094e-01
-2.291896380484104156e-02 1.371761560440063477e-01 1.373298764228820801e-01
3.218494355678558350e-02 2.009325772523880005e-01 -8.357228338718414307e-02
3.558260574936866760e-02 -5.042567104101181030e-02 -3.603793308138847351e-02
1.421328075230121613e-02 5.376319289207458496e-01 -1.161027327179908752e-01
1.915779709815979004e-02 5.059390664100646973e-01 1.081471070647239685e-01
-3.468472138047218323e-02 2.089264094829559326e-01 2.280547982081770897e-03
1.381662115454673767e-02 -4.885246157646179199e-01 -1.038482338190078735e-01
3.316873311996459961e-02 2.178961485624313354e-01 -7.150739431381225586e-02
-2.035861462354660034e-02 -6.780499964952468872e-02 1.548365801572799683e-01
-3.665810450911521912e-02 -3.561534732580184937e-02 -4.306560382246971130e-02
3.583103418350219727e-02 -1.019137725234031677e-01 -8.994154632091522217e-03
-1.542768161743879318e-02 -3.946671783924102783e-01 -1.429025530815124512e-01
3.363592177629470825e-02 1.303819119930267334e-01 8.410862833261489868e-02
3.232620283961296082e-02 -1.069624423980712891e-01 8.711137622594833374e-02
3.067054040729999542e-02 3.270487487316131592e-01 -7.863388955593109131e-02
2.140560001134872437e-02 -1.238658651709556580e-01 -1.436291933059692383e-01
-2.242980338633060455e-02 2.626287043094635010e-01 -1.369942873716354370e-01
-1.882497966289520264e-02 1.556099671870470047e-02 -1.679776906967163086e-01
2.249488607048988342e-02 5.841623544692993164e-01 -5.513838678598403931e-02
3.003621101379394531e-02 1.461010128259658813e-01 1.138822734355926514e-01
2.019560150802135468e-02 6.030175685882568359e-01 6.207598000764846802e-02
1.803472451865673065e-02 7.275970280170440674e-02 1.681106984615325928e-01
-2.186984755098819733e-03 4.356991946697235107e-01 -1.554582566022872925e-01
1.797914877533912659e-02 3.833968937397003174e-01 1.402949094772338867e-01
1.307413447648286819e-02 5.500286817550659180e-01 1.128356605768203735e-01
2.824096195399761200e-02 4.915028512477874756e-01 -4.679324477910995483e-02
2.717271819710731506e-02 2.960043549537658691e-01 -1.104216873645782471e-01
3.536437824368476868e-02 1.479458212852478027e-01 -4.925264418125152588e-02
-3.583689406514167786e-02 9.202872216701507568e-02 2.809212915599346161e-02
2.481495216488838196e-02 -4.607711136341094971e-01 4.304618015885353088e-02
2.956577017903327942e-02 4.990743994712829590e-01 -6.580475717782974243e-03
-3.564977273344993591e-02 -1.285841614007949829e-01 4.658115282654762268e-02
-2.417633868753910065e-02 -2.709631323814392090e-01 1.271797418594360352e-01
-3.693047538399696350e-02 -1.310921460390090942e-01 1.375096850097179413e-02
-3.488980233669281006e-02 -3.019600808620452881e-01 1.324205845594406128e-02
-3.665618225932121277e-02 -6.138361990451812744e-02 -4.346007108688354492e-02
2.792436070740222931e-02 5.352971553802490234e-01 9.349464438855648041e-03
-3.017337620258331299e-02 2.079581469297409058e-01 -9.725689888000488281e-02
2.887951023876667023e-02 4.308271408081054688e-01 7.210795581340789795e-02
2.596295997500419617e-02 -1.226785108447074890e-01 -1.216043680906295776e-01
-1.708288677036762238e-02 5.586805343627929688e-01 6.414147466421127319e-02
2.187013596994802356e-04 2.283420711755752563e-01 1.790095120668411255e-01
-2.712856791913509369e-02 -2.855930626392364502e-01 -1.175389289855957031e-01
1.282201614230871201e-02 -2.288327962160110474e-01 1.672822982072830200e-01
-2.933730185031890869e-02 -2.979886233806610107e-01 9.233414381742477417e-02
2.863587066531181335e-02 4.392004609107971191e-01 7.135744392871856689e-02
6.556158419698476791e-03 -1.280573010444641113e-01 -1.809635162353515625e-01
3.228269517421722412e-02 -2.841589748859405518e-01 1.369513012468814850e-02
-3.320424258708953857e-02 -1.117579638957977295e-01 -9.178415685892105103e-02
2.619217336177825928e-02 -2.622256875038146973e-01 1.104727312922477722e-01
-5.070976912975311279e-03 -6.270290911197662354e-02 -1.884877532720565796e-01
-9.421799331903457642e-03 5.619423985481262207e-01 1.001307293772697449e-01
-7.765825372189283371e-03 5.065022408962249756e-02 -1.874993294477462769e-01
-3.371794149279594421e-02 -3.386148512363433838e-01 -3.656205907464027405e-02
-1.966343633830547333e-02 5.435147881507873535e-02 1.553999781608581543e-01
1.752503216266632080e-02 -4.469099938869476318e-01 -1.006233170628547668e-01
-2.460366487503051758e-02 1.764542907476425171e-01 -1.378497034311294556e-01
-3.328006714582443237e-02 -3.393830657005310059e-01 -4.605856165289878845e-02
-3.019349090754985809e-02 3.376428782939910889e-01 3.892873600125312805e-02
-2.551884017884731293e-02 3.557586371898651123e-01 -9.968863427639007568e-02
2.305933460593223572e-02 -4.438353329896926880e-02 1.505817174911499023e-01
1.802916452288627625e-02 2.056805193424224854e-01 1.619061678647994995e-01
-2.204365469515323639e-02 5.318818688392639160e-01 3.031866066157817841e-02
1.804221794009208679e-02 6.296132802963256836e-01 5.921474099159240723e-02
-2.700898610055446625e-02 4.415790140628814697e-01 2.407026290893554688e-02
1.122907362878322601e-02 3.539644777774810791e-01 1.589918434619903564e-01
-2.614130824804306030e-02 -3.490402698516845703e-01 1.047497615218162537e-01
-3.019564040005207062e-02 -4.676734209060668945e-01 -1.609490066766738892e-02
2.553001977503299713e-02 4.577749371528625488e-01 -8.683466166257858276e-02
3.386958688497543335e-02 6.153818964958190918e-02 8.334868401288986206e-02
2.080210298299789429e-02 -5.075137019157409668e-01 -4.948703572154045105e-02
-2.491394430398941040e-02 -3.567179739475250244e-01 -1.167902648448944092e-01
5.878102965652942657e-03 -4.581214785575866699e-01 -1.349339932203292847e-01
-2.181726694107055664e-02 -5.241264700889587402e-01 8.114337921142578125e-02
1.621835492551326752e-02 4.856470823287963867e-01 1.234387904405593872e-01
-1.885359175503253937e-02 -5.875470638275146484e-01 -7.063753902912139893e-02
-1.839625649154186249e-02 5.906870365142822266e-01 -3.964978083968162537e-02
1.034282520413398743e-02 -1.731269657611846924e-01 -1.716536730527877808e-01
-3.271236270666122437e-02 1.024833694100379944e-01 -8.968140184879302979e-02
2.695815078914165497e-02 4.191145896911621094e-01 -8.759056776762008667e-02
-3.455849736928939819e-02 2.074624300003051758e-01 -2.860997989773750305e-02
3.247119486331939697e-02 5.760109983384609222e-03 9.610660374164581299e-02
1.435269974172115326e-02 -4.432502388954162598e-02 1.761139333248138428e-01
-2.574400231242179871e-02 3.237474858760833740e-01 9.170054644346237183e-02
2.574318647384643555e-02 -1.781179606914520264e-01 1.271430253982543945e-01
-1.755118835717439651e-03 4.385132789611816406e-01 1.480979472398757935e-01
-3.669558465480804443e-02 -1.737441122531890869e-01 -2.430205605924129486e-02
3.072335757315158844e-02 1.867865025997161865e-01 -9.743907302618026733e-02
-3.156216442584991455e-02 -3.845535963773727417e-02 9.508296102285385132e-02
8.922381326556205750e-03 -6.053615808486938477e-01 8.312012255191802979e-02
-3.682792931795120239e-02 -5.581858754158020020e-02 2.401717193424701691e-02
1.999163627624511719e-02 -5.254406332969665527e-01 5.863085389137268066e-02
3.304599970579147339e-02 -2.533716857433319092e-01 1.869507692754268646e-02
-3.544144332408905029e-02 -1.824142634868621826e-01 -5.602099001407623291e-02
2.966907434165477753e-02 -1.205982491374015808e-01 1.088613793253898621e-01
1.524030603468418121e-02 6.666656732559204102e-01 4.812890291213989258e-02
-2.693610824644565582e-02 4.585260152816772461e-01 -1.192576438188552856e-02
2.669853903353214264e-02 -3.843687474727630615e-01 6.727357208728790283e-02
2.855712547898292542e-02 3.690255582332611084e-01 9.329661726951599121e-02
2.863624878227710724e-02 -3.874593079090118408e-01 -1.323283743113279343e-02
-3.609900176525115967e-02 9.431265294551849365e-02 1.944595389068126678e-02
1.098547875881195068e-02 -6.558499336242675781e-01 -2.571491990238428116e-03
-2.245281450450420380e-02 -2.423711717128753662e-01 -1.447179764509201050e-01
-2.175052836537361145e-02 -2.954266667366027832e-01 -1.407001316547393799e-01
1.791350357234477997e-02 -1.567731946706771851e-01 -1.535961478948593140e-01
-5.989883095026016235e-03 1.461414098739624023e-01 1.807578206062316895e-01
-2.865447476506233215e-02 -4.889981448650360107e-01 2.920730784535408020e-02
3.234712406992912292e-02 -8.109983056783676147e-02 9.032998979091644287e-02
1.030100788921117783e-02 7.199773788452148438e-01 3.467163769528269768e-03
-3.650408983230590820e-02 7.823284715414047241e-02 9.354741312563419342e-03
8.290157653391361237e-03 -2.716855108737945557e-01 1.701933443546295166e-01
2.867601066827774048e-02 1.253604590892791748e-01 -1.150806918740272522e-01
2.224586717784404755e-02 -3.402246236801147461e-01 -1.053959280252456665e-01
-2.267625555396080017e-02 -2.419224083423614502e-01 1.369925737380981445e-01
2.586195943877100945e-03 5.845870971679687500e-01 -1.187286525964736938e-01
1.674138940870761871e-02 4.841065406799316406e-01 -1.227660030126571655e-01
-1.364347431808710098e-02 -2.927451133728027344e-01 -1.623798906803131104e-01
-2.900911308825016022e-02 3.999474048614501953e-01 1.586106233298778534e-02
-2.495523355901241302e-02 4.993229806423187256e-01 -6.874985992908477783e-03
-5.588585045188665390e-03 1.573656648397445679e-01 1.804850995540618896e-01
-3.421665355563163757e-02 -3.396379053592681885e-01 -1.577268354594707489e-02
1.792551577091217041e-02 -2.174075245857238770e-01 -1.468881517648696899e-01
3.143986314535140991e-02 2.401729673147201538e-01 9.432409703731536865e-02
-3.592804819345474243e-02 -1.676868498325347900e-01 -4.926181584596633911e-02
3.284012898802757263e-02 3.062833249568939209e-01 -5.925233662128448486e-02
3.660854324698448181e-02 1.240375787019729614e-01 3.534538671374320984e-02
-2.860515937209129333e-02 3.609400391578674316e-01 5.128698423504829407e-02
-1.473571080714464188e-02 5.342957973480224609e-01 8.974554389715194702e-02
-9.650852531194686890e-03 -6.937656402587890625e-01 -2.910165861248970032e-02
-2.544646710157394409e-02 2.820818722248077393e-01 -1.177594810724258423e-01
-3.443873673677444458e-02 2.039266824722290039e-01 1.904089935123920441e-02
3.589003160595893860e-02 1.585531421005725861e-02 5.228584632277488708e-02
-1.265239436179399490e-02 -1.553337872028350830e-01 1.726872473955154419e-01
-1.551911700516939163e-02 -1.791225224733352661e-01 -1.699783653020858765e-01
-3.229362145066261292e-02 -2.070794105529785156e-01 -9.152446687221527100e-02
-1.871703192591667175e-02 4.990595579147338867e-01 8.185189962387084961e-02
2.235523052513599396e-02 -4.092464447021484375e-01 -8.394649624824523926e-02
-2.680595405399799347e-02 4.579578042030334473e-01 7.283334620296955109e-03
-2.203312516212463379e-02 5.034754276275634766e-01 -6.826514750719070435e-02
-2.644869498908519745e-02 4.076225161552429199e-01 -7.209362834692001343e-02
1.700215600430965424e-02 -4.054392874240875244e-02 -1.641740947961807251e-01
2.376525290310382843e-02 -4.942440688610076904e-01 -9.964492172002792358e-03
7.905377075076103210e-03 -6.374002695083618164e-01 -5.731185898184776306e-02
-3.319516777992248535e-02 -1.638096570968627930e-01 -8.785215765237808228e-02
1.067327894270420074e-02 6.974986195564270020e-01 4.231825098395347595e-02
3.438454121351242065e-02 -5.811306834220886230e-02 6.901083141565322876e-02
