1.528005115687847137e-02 -4.040188491344451904e-01 -1.756847500801086426e-01
1.292264461517333984e-01 2.344149351119995117e-01 4.158335626125335693e-01
1.879599839448928833e-01 -1.494238972663879395e-01 3.787921071052551270e-01
1.171240881085395813e-01 -3.791551887989044189e-01 -7.331266999244689941e-02
8.382979780435562134e-02 -3.104724287986755371e-01 3.352288901805877686e-01
1.789675951004028320e-01 -3.244705498218536377e-01 -3.077842108905315399e-02
2.024561017751693726e-01 -2.661908864974975586e-01 -1.588428914546966553e-01
-2.030114680528640747e-01 -2.908642292022705078e-01 -1.785193532705307007e-01
-2.188450992107391357e-01 -2.063633650541305542e-01 -2.841048538684844971e-01
-1.210671514272689819e-01 1.261032819747924805e-01 -4.669268429279327393e-01
-3.547150641679763794e-02 -3.546777665615081787e-01 2.912743985652923584e-01
-2.459679394960403442e-01 1.134448274970054626e-01 -2.620048522949218750e-01
1.947872936725616455e-01 -2.959142327308654785e-01 1.018139049410820007e-01
-1.430961340665817261e-01 -3.650395870208740234e-01 1.057896316051483154e-01
2.847535908222198486e-01 1.302663516253232956e-02 -1.788681000471115112e-02
-3.130958601832389832e-02 2.422759532928466797e-01 4.731662869453430176e-01
-1.324478983879089355e-01 2.109900116920471191e-01 -3.924606144428253174e-01
-2.764844894409179688e-01 -1.481892615556716919e-01 7.147460430860519409e-02
1.546938270330429077e-01 -1.729416698217391968e-01 4.146979749202728271e-01
-1.247089728713035583e-02 -4.110038280487060547e-01 -1.520250588655471802e-01
-3.255361318588256836e-02 -2.984845340251922607e-01 -4.021666049957275391e-01
-9.497044980525970459e-02 1.250874903053045273e-02 5.368480682373046875e-01
-5.391287803649902344e-02 3.771663010120391846e-01 2.457412481307983398e-01
-2.425090372562408447e-01 -2.416297942399978638e-01 7.835484296083450317e-02
-4.477046430110931396e-02 -2.629683613777160645e-01 -4.389740824699401855e-01
2.407343685626983643e-02 3.682484924793243408e-01 -2.206575721502304077e-01
2.757685184478759766e-01 1.003954038023948669e-01 9.644130617380142212e-02
4.500807076692581177e-02 4.104166626930236816e-01 -5.007732659578323364e-03
-1.673811376094818115e-01 1.252741217613220215e-01 4.385833442211151123e-01
-2.140220850706100464e-01 -7.922634482383728027e-02 3.722732365131378174e-01
2.438824921846389771e-01 -1.816885918378829956e-01 1.684792488813400269e-01
2.287647575139999390e-01 9.299877285957336426e-02 3.372588455677032471e-01
1.673328280448913574e-01 1.513315439224243164e-01 -3.717499077320098877e-01
-8.504857122898101807e-02 -3.310051858425140381e-01 3.051410317420959473e-01
-2.184823602437973022e-01 2.779556512832641602e-01 5.958508234471082687e-03
2.311276346445083618e-01 -1.602510213851928711e-01 2.587137520313262939e-01
3.776287287473678589e-02 -3.643511831760406494e-01 2.641876339912414551e-01
2.515217661857604980e-01 -1.060374677181243896e-01 2.384207546710968018e-01
1.280776560306549072e-01 -3.289521038532257080e-01 2.360568046569824219e-01
1.182313486933708191e-01 -1.735761463642120361e-01 -4.420830309391021729e-01
-9.974377602338790894e-02 -3.880136907100677490e-01 -1.616444885730743408e-01
-1.354758143424987793e-01 1.424885094165802002e-01 4.706434607505798340e-01
-1.732797175645828247e-01 2.659101784229278564e-01 2.943673431873321533e-01
-1.270730793476104736e-01 -2.939882874488830566e-01 3.201436996459960938e-01
-1.646725386381149292e-01 -3.466032743453979492e-01 -1.391286849975585938e-01
1.731729209423065186e-01 8.876769989728927612e-02 -3.980452418327331543e-01
2.264042496681213379e-01 -2.533589005470275879e-01 2.571540884673595428e-03
9.547550231218338013e-02 -3.958618044853210449e-01 1.216749008744955063e-02
1.864400804042816162e-01 -1.729452013969421387e-01 -3.395534455776214600e-01
1.974890232086181641e-01 -1.688584685325622559e-01 -3.187163472175598145e-01
-1.851888298988342285e-01 -2.047332078218460083e-01 3.410747349262237549e-01
2.247169166803359985e-01 1.400448679924011230e-01 3.194299042224884033e-01
-1.079939305782318115e-03 2.317613065242767334e-01 -4.359827041625976562e-01
2.896269224584102631e-02 1.240963265299797058e-01 5.475697517395019531e-01
-2.573017776012420654e-01 1.598376184701919556e-01 -1.578176021575927734e-01
-1.026746481657028198e-01 1.188475936651229858e-01 5.117574930191040039e-01
-1.270617842674255371e-01 -2.470274865627288818e-01 3.829950988292694092e-01
4.929945617914199829e-02 1.756754666566848755e-01 5.184128284454345703e-01
6.719085574150085449e-02 2.070034742355346680e-01 -4.353075623512268066e-01
6.869603693485260010e-02 -1.680232733488082886e-01 -4.865001440048217773e-01
1.042160093784332275e-01 -2.085329741239547729e-01 4.417691528797149658e-01
-1.525722146034240723e-01 -3.626227378845214844e-01 -1.102879643440246582e-01
1.738113462924957275e-01 -9.577874839305877686e-02 4.353403449058532715e-01
-2.224250584840774536e-01 2.701080739498138428e-01 -2.347006462514400482e-02
1.719501316547393799e-01 -1.231539696455001831e-01 4.238877296447753906e-01
2.860786579549312592e-02 -1.579207330942153931e-01 -5.098259449005126953e-01
-1.768004894256591797e-01 3.231500685214996338e-01 -8.280914276838302612e-02
-2.635769844055175781e-01 1.845091581344604492e-01 4.938754253089427948e-03
8.260619640350341797e-02 3.507018685340881348e-01 2.901704013347625732e-01
8.356446027755737305e-02 2.763025760650634766e-01 -3.491573929786682129e-01
-2.756186723709106445e-01 -5.327077955007553101e-02 1.918310821056365967e-01
-2.643496096134185791e-01 -7.233095169067382812e-02 2.330105751752853394e-01
-1.440836638212203979e-01 -3.693293035030364990e-01 7.598217576742172241e-02
-1.110755950212478638e-01 2.887757718563079834e-01 3.652439415454864502e-01
2.092276066541671753e-01 -4.674355685710906982e-02 3.909785747528076172e-01
-2.051132768392562866e-01 1.963833719491958618e-01 3.140875697135925293e-01
1.823049485683441162e-01 9.718119353055953979e-02 -3.791103065013885498e-01
-2.596416510641574860e-02 3.974977433681488037e-01 -1.266939491033554077e-01
1.692995131015777588e-01 3.358381688594818115e-01 7.131507247686386108e-02
-2.181364893913269043e-01 -1.878472417593002319e-01 -3.064963817596435547e-01
2.774441540241241455e-01 7.359798997640609741e-02 1.235656440258026123e-01
5.594675987958908081e-02 1.354325264692306519e-01 -4.902497828006744385e-01
2.140775471925735474e-01 -4.144493117928504944e-02 3.821550905704498291e-01
2.058928012847900391e-01 6.371475011110305786e-02 4.004104733467102051e-01
1.291210353374481201e-01 2.984089255332946777e-01 3.314352333545684814e-01
2.205292731523513794e-01 -5.923914909362792969e-02 3.619001805782318115e-01
1.980654001235961914e-01 -2.961067557334899902e-01 7.081731408834457397e-02
-4.051700234413146973e-02 5.205323919653892517e-02 5.605287551879882812e-01
1.209782958030700684e-01 3.779375851154327393e-01 5.212572962045669556e-02
-1.445989310741424561e-02 -1.644338518381118774e-01 -5.131940841674804688e-01
9.951339662075042725e-02 2.173898816108703613e-01 -4.014265537261962891e-01
-1.901296079158782959e-01 2.401954233646392822e-01 2.944401204586029053e-01
3.098466061055660248e-02 -3.701680898666381836e-01 -2.710611224174499512e-01
-1.192180439829826355e-01 2.648499906063079834e-01 3.874005079269409180e-01
4.195728152990341187e-02 3.962336182594299316e-01 1.895647644996643066e-01
-3.555286675691604614e-04 -3.371151089668273926e-01 -3.474294841289520264e-01
-2.940019965171813965e-01 3.974572196602821350e-02 -2.240354008972644806e-02
-1.049926355481147766e-01 -3.047312796115875244e-01 3.301194608211517334e-01
-1.760194450616836548e-01 -3.049373030662536621e-01 2.033494859933853149e-01
-2.444020211696624756e-01 -5.568400770425796509e-02 -3.152519762516021729e-01
2.558680474758148193e-01 -4.871389269828796387e-02 2.588258087635040283e-01
1.486172229051589966e-01 7.581537216901779175e-02 -4.378667175769805908e-01
1.465355157852172852e-01 -1.251292079687118530e-01 4.574798643589019775e-01
4.178126342594623566e-03 3.968642055988311768e-01 2.057525664567947388e-01
-1.754330545663833618e-01 -2.043728381395339966e-01 -3.781277239322662354e-01
1.490029841661453247e-01 2.676495015621185303e-01 -2.761560082435607910e-01
-1.852596402168273926e-01 5.659672990441322327e-02 -4.236738085746765137e-01
2.464210242033004761e-01 -2.049155384302139282e-01 7.091989368200302124e-02
2.046487480401992798e-01 -2.905926108360290527e-01 3.282174468040466309e-03
-1.537935584783554077e-01 -3.632408380508422852e-01 6.273057311773300171e-02
5.242492258548736572e-02 3.891013264656066895e-01 -1.333159506320953369e-01
-6.749302148818969727e-02 -3.636176586151123047e-01 2.518760859966278076e-01
4.567217826843261719e-02 3.957453072071075439e-01 -1.123694404959678650e-01
2.414148598909378052e-01 6.059623882174491882e-02 -2.572368085384368896e-01
-9.802525490522384644e-02 -4.006888270378112793e-01 -8.724067360162734985e-02
2.670356333255767822e-01 -1.703365519642829895e-02 -1.705548614263534546e-01
2.799640297889709473e-01 -2.974116057157516479e-02 1.270150840282440186e-01
1.622564941644668579e-01 2.547561824321746826e-01 -2.705108523368835449e-01
1.909732371568679810e-01 2.468354403972625732e-01 2.870352864265441895e-01
2.797391414642333984e-01 -5.884682759642601013e-02 1.016016528010368347e-01
1.867160648107528687e-01 1.624918282032012939e-01 -3.283013999462127686e-01
-2.868592143058776855e-01 -1.011256203055381775e-01 6.132395565509796143e-02
2.210053652524948120e-01 1.105241179466247559e-01 -2.891990244388580322e-01
-1.803391724824905396e-01 -3.408328592777252197e-01 3.512455150485038757e-02
-1.450307518243789673e-01 -3.323689997196197510e-01 -2.446137964725494385e-01
2.384703159332275391e-01 1.489993482828140259e-01 2.665636241436004639e-01
1.345803737640380859e-01 -1.387323141098022461e-01 -4.425095021724700928e-01
1.414330601692199707e-01 2.852216958999633789e-01 3.331764638423919678e-01
2.597587406635284424e-01 1.413997113704681396e-01 -1.039693951606750488e-01
-1.041893213987350464e-01 2.344480305910110474e-01 -3.957393467426300049e-01
-1.918635666370391846e-01 -4.238330200314521790e-02 4.241215288639068604e-01
1.230021715164184570e-01 -2.058238387107849121e-01 4.257749617099761963e-01
1.629538536071777344e-01 -7.425029575824737549e-02 -4.280131459236145020e-01
-2.203125357627868652e-01 9.308997541666030884e-02 -3.444091677665710449e-01
6.495144963264465332e-02 -3.351255655288696289e-01 3.077416121959686279e-01
7.121566683053970337e-02 -3.979465365409851074e-01 -1.262905299663543701e-01
-2.471869885921478271e-01 1.854695975780487061e-01 1.822163909673690796e-01
-2.948805987834930420e-01 4.863479174673557281e-03 -5.325156450271606445e-02
-9.997810423374176025e-02 3.107043802738189697e-01 3.443101048469543457e-01
-2.890408635139465332e-01 -6.752220541238784790e-02 -1.034288629889488220e-01
-3.719360381364822388e-02 -2.787530422210693359e-01 -4.243376255035400391e-01
-1.456146538257598877e-01 1.345458179712295532e-01 -4.383249580860137939e-01
1.682903468608856201e-01 -1.127110049128532410e-01 -4.077084660530090332e-01
-2.727240622043609619e-01 -1.554437279701232910e-01 9.143426269292831421e-02
-7.278628647327423096e-02 -3.740086257457733154e-01 -2.483244240283966064e-01
1.477110534906387329e-01 -3.581991195678710938e-01 -1.009720563888549805e-02
1.090336218476295471e-01 -3.608982861042022705e-01 1.843718588352203369e-01
-7.874506711959838867e-02 -1.851499676704406738e-01 4.799314439296722412e-01
1.716848462820053101e-01 -1.932593435049057007e-01 3.696700632572174072e-01
2.714757621288299561e-01 4.181000404059886932e-03 1.986388862133026123e-01
1.012547779828310013e-02 2.488790154457092285e-01 4.719204902648925781e-01
-1.712198853492736816e-01 1.524121016263961792e-01 4.177685379981994629e-01
-2.254853695631027222e-01 1.814667731523513794e-01 2.743424773216247559e-01
-2.951977550983428955e-01 -3.095511347055435181e-02 -4.296475648880004883e-02
-2.726237177848815918e-01 1.176312118768692017e-01 1.463609337806701660e-01
-9.349191933870315552e-02 3.747770488262176514e-01 -1.383421421051025391e-01
1.789816766977310181e-01 9.084528684616088867e-02 -3.876861631870269775e-01
-1.695349365472793579e-01 2.465988695621490479e-01 -2.960263788700103760e-01
-2.521231472492218018e-01 -2.071562558412551880e-01 -1.475208252668380737e-01
2.018998265266418457e-01 1.616387218236923218e-01 -2.962615787982940674e-01
-1.547918375581502914e-02 -3.478148579597473145e-01 -3.296801149845123291e-01
2.719509005546569824e-01 -5.746723152697086334e-03 1.949482858180999756e-01
-2.245845645666122437e-01 -2.425492107868194580e-01 1.797552704811096191e-01
1.279717087745666504e-01 3.686640858650207520e-01 -3.606874495744705200e-02
8.132891356945037842e-02 1.861035823822021484e-01 4.970220923423767090e-01
-2.180058658123016357e-01 -4.975050687789916992e-02 3.734274804592132568e-01
1.266493648290634155e-01 -2.466915175318717957e-02 -4.786076843738555908e-01
-2.997897192835807800e-02 -2.378322929143905640e-01 4.566347599029541016e-01
-2.702956199645996094e-01 -1.792682260274887085e-01 3.308267891407012939e-02
-2.295524030923843384e-01 2.352567613124847412e-01 -1.337406784296035767e-01
9.677932411432266235e-02 3.748223781585693359e-01 -1.151162311434745789e-01
-2.674150168895721436e-01 -1.282921135425567627e-01 -1.927251517772674561e-01
5.230820178985595703e-02 -4.235888645052909851e-02 -5.314056277275085449e-01
8.533043414354324341e-02 1.527808159589767456e-01 -4.628258645534515381e-01
1.980158090591430664e-01 1.530950516462326050e-01 3.749026656150817871e-01
1.663128882646560669e-01 -3.396487534046173096e-01 1.302034966647624969e-02
2.617196440696716309e-01 7.250548154115676880e-02 -1.715942174196243286e-01
-2.652857601642608643e-01 5.598467215895652771e-02 2.360091507434844971e-01
-2.288292795419692993e-01 -2.642508745193481445e-01 -1.263006478548049927e-01
1.267581284046173096e-01 -2.115841805934906006e-01 -4.048035740852355957e-01
-2.325708121061325073e-01 -1.656378358602523804e-01 2.682737112045288086e-01
1.431172639131546021e-01 2.551429271697998047e-01 3.735385537147521973e-01
-1.397577971220016479e-01 -6.282915920019149780e-02 -4.873494803905487061e-01
2.426562458276748657e-01 2.188115119934082031e-01 -1.190031133592128754e-02
1.629631221294403076e-01 -3.076514005661010742e-01 2.036232650279998779e-01
-2.440516352653503418e-01 1.710966527462005615e-01 2.206115871667861938e-01
6.401625275611877441e-02 -3.967394232749938965e-01 1.315422207117080688e-01
-1.849411129951477051e-01 8.780907839536666870e-03 4.402423202991485596e-01
-2.072264701128005981e-01 2.579785883426666260e-01 2.083142548799514771e-01
-2.625285983085632324e-01 4.164724610745906830e-03 -2.611186206340789795e-01
6.626179441809654236e-03 3.091578185558319092e-01 -3.414296507835388184e-01
1.010802462697029114e-01 -2.733175456523895264e-01 -3.723228573799133301e-01
-1.329742968082427979e-01 3.581178486347198486e-01 -1.061573848128318787e-01
-3.180002793669700623e-02 4.024527072906494141e-01 1.671244800090789795e-01
-2.600404024124145508e-01 -8.237527310848236084e-02 2.442295700311660767e-01
-2.445296384394168854e-02 4.060424268245697021e-01 1.530474722385406494e-01
1.725528836250305176e-01 -3.119460344314575195e-01 -1.518424898386001587e-01
2.759265601634979248e-01 -7.058065384626388550e-02 1.285306513309478760e-01
-3.376116044819355011e-03 -1.983237415552139282e-01 -4.938530027866363525e-01
-2.415031790733337402e-01 -2.541065216064453125e-01 -1.276190765202045441e-02
5.065264552831649780e-02 -1.456990838050842285e-01 -5.068919062614440918e-01
2.755349278450012207e-01 -7.346633076667785645e-02 -8.532971888780593872e-02
1.686842888593673706e-01 -1.880763173103332520e-01 3.798950910568237305e-01
2.254604250192642212e-01 -1.144739836454391479e-01 -2.864133715629577637e-01
-1.347501575946807861e-01 -2.145304977893829346e-01 -4.235974252223968506e-01
-2.345813810825347900e-01 2.486658096313476562e-01 5.447910726070404053e-02
2.375471740961074829e-01 -1.801338940858840942e-01 2.043480277061462402e-01
1.403672993183135986e-01 2.721560001373291016e-01 -2.843125462532043457e-01
-8.733307942748069763e-03 2.142723798751831055e-01 -4.521245658397674561e-01
2.395715415477752686e-01 1.944503001868724823e-02 3.255842924118041992e-01
-1.890771836042404175e-01 -2.856414020061492920e-01 2.101311534643173218e-01
2.293225526809692383e-01 2.032274007797241211e-01 -1.571798920631408691e-01
-8.995074778795242310e-02 -8.543413877487182617e-02 -5.201146602630615234e-01
-8.731676638126373291e-02 1.737718284130096436e-01 4.964176416397094727e-01
1.513946950435638428e-01 -1.538761407136917114e-01 4.334957003593444824e-01
9.471154958009719849e-02 -1.651851236820220947e-01 -4.692412614822387695e-01
1.557330340147018433e-01 3.086947798728942871e-01 -1.807467490434646606e-01
9.637131541967391968e-02 -2.470273673534393311e-01 4.102419018745422363e-01
1.024524345993995667e-01 2.848031222820281982e-01 3.864226937294006348e-01
2.590184286236763000e-02 1.744132041931152344e-01 -4.779085516929626465e-01
1.110981218516826630e-02 3.968901932239532471e-03 5.685481429100036621e-01
-2.363114953041076660e-01 -1.460094153881072998e-01 -2.944943606853485107e-01
1.571671664714813232e-02 -2.924596965312957764e-01 -4.071656167507171631e-01
-7.338581234216690063e-02 -4.113265872001647949e-01 4.468316584825515747e-02
-1.800962910056114197e-02 4.133529663085937500e-01 -3.032311983406543732e-02
-1.579889208078384399e-01 2.626773118972778320e-01 -2.926831543445587158e-01
5.670844763517379761e-02 -6.972415000200271606e-02 -5.262462496757507324e-01
2.834419310092926025e-01 5.119550973176956177e-02 5.862881243228912354e-02
1.101947501301765442e-01 3.671928048133850098e-01 -1.137353107333183289e-01
1.769021153450012207e-01 2.892516553401947021e-01 2.436867505311965942e-01
-2.897436916828155518e-01 3.448309144005179405e-03 -1.186790242791175842e-01
-2.588713765144348145e-01 -1.184523664414882660e-02 2.706624865531921387e-01
-1.677747368812561035e-01 3.088805973529815674e-01 -1.744054853916168213e-01
7.055196166038513184e-02 4.030520617961883545e-01 7.759550958871841431e-02
-2.239823527634143829e-02 -3.557980954647064209e-01 -3.140597343444824219e-01
-2.812905311584472656e-01 -6.701352447271347046e-02 -1.655800193548202515e-01
-2.540067136287689209e-01 -8.714214712381362915e-02 -2.762484550476074219e-01
-1.865169256925582886e-01 1.755392737686634064e-02 4.375663101673126221e-01
1.422226876020431519e-01 -6.810231506824493408e-02 4.868054389953613281e-01
2.340933680534362793e-01 -2.301683723926544189e-01 9.014813601970672607e-02
2.790089547634124756e-01 -8.732730895280838013e-02 6.423917599022388458e-03
-1.397793292999267578e-01 1.334889531135559082e-01 4.702517092227935791e-01
2.851894199848175049e-01 2.915350534021854401e-02 3.614819049835205078e-02
7.394208572804927826e-03 -2.717175781726837158e-01 -4.322138130664825439e-01
-1.954279839992523193e-01 2.626810073852539062e-01 -2.052549123764038086e-01
-6.985789537429809570e-02 -2.865340001881122589e-02 5.485552549362182617e-01
-2.290781214833259583e-02 1.101318746805191040e-01 -5.177789330482482910e-01
2.631839811801910400e-01 9.942591190338134766e-02 -1.410383135080337524e-01
-2.300955653190612793e-01 8.248813450336456299e-02 3.372139632701873779e-01
9.373407810926437378e-02 -2.002232149243354797e-02 5.385937690734863281e-01
2.384788542985916138e-01 2.151219993829727173e-01 1.495226025581359863e-01
1.456946283578872681e-01 -3.499101102352142334e-01 -1.140198186039924622e-01
1.775264739990234375e-01 2.404031902551651001e-01 -2.591720521450042725e-01
-1.682822406291961670e-01 -3.194068670272827148e-01 -2.202533632516860962e-01
-2.189244776964187622e-01 -2.854567766189575195e-01 -1.062812879681587219e-01
1.803422570228576660e-01 1.961229741573333740e-01 3.746096789836883545e-01
1.813580989837646484e-01 3.297346830368041992e-02 -4.020882844924926758e-01
-8.593026548624038696e-02 2.430792897939682007e-01 -4.001871645450592041e-01
1.548403054475784302e-01 -2.723530232906341553e-01 2.976802289485931396e-01
1.610287576913833618e-01 9.551961719989776611e-02 -4.134015440940856934e-01
1.847867295145988464e-02 4.130395352840423584e-01 1.041994765400886536e-01
-2.761088907718658447e-01 1.393326222896575928e-01 -4.589190334081649780e-02
-2.961291074752807617e-01 -9.718685410916805267e-03 -1.913406513631343842e-02
2.162355780601501465e-01 2.738741040229797363e-01 4.670516401529312134e-02
-1.312927007675170898e-01 -3.596116304397583008e-01 1.653235256671905518e-01
1.190740987658500671e-01 3.413982391357421875e-01 -1.808429807424545288e-01
2.667019963264465332e-01 -8.355861529707908630e-03 2.230283915996551514e-01
1.423748210072517395e-02 4.071472585201263428e-01 1.531999558210372925e-01
-5.940985679626464844e-02 1.307204216718673706e-01 -5.004158020019531250e-01
-3.878850489854812622e-02 -1.330226808786392212e-01 -5.244690179824829102e-01
1.508099883794784546e-01 2.086429148912429810e-01 -3.480089902877807617e-01
-1.559865027666091919e-01 -1.215264573693275452e-01 -4.550166428089141846e-01
2.407630831003189087e-01 7.954887300729751587e-02 -2.501473128795623779e-01
-2.396713048219680786e-01 -1.850911825895309448e-01 -2.444920539855957031e-01
2.385373264551162720e-01 2.310554981231689453e-01 5.160872638225555420e-02
2.590803205966949463e-01 1.463691145181655884e-01 1.672404706478118896e-01
8.115764707326889038e-03 -3.119034767150878906e-01 -3.840256035327911377e-01
6.700893491506576538e-02 4.009905755519866943e-01 1.178518682718276978e-01
2.657752633094787598e-01 1.511858701705932617e-01 8.192866295576095581e-02
2.260162383317947388e-01 1.497352272272109985e-01 3.075277507305145264e-01
-7.331535220146179199e-02 2.347715385258197784e-02 -5.307419896125793457e-01
-3.461456298828125000e-02 2.041592895984649658e-01 -4.582817554473876953e-01
-2.550070583820343018e-01 5.414418876171112061e-02 2.751277983188629150e-01
-2.953816056251525879e-01 1.329416502267122269e-02 -3.248936682939529419e-02
-2.509143352508544922e-01 -8.754854649305343628e-02 2.732288837432861328e-01
-1.989571154117584229e-01 -2.622230947017669678e-01 2.289608716964721680e-01
1.726368516683578491e-01 1.214530989527702332e-01 -3.825365900993347168e-01
6.938566267490386963e-02 -3.348657190799713135e-01 -3.137911856174468994e-01
-1.682513058185577393e-01 -2.092744857072830200e-01 -3.850717246532440186e-01
-1.747592538595199585e-01 2.695789039134979248e-01 -2.468440532684326172e-01
2.662114500999450684e-01 -1.453267782926559448e-01 6.434927880764007568e-02
-3.584704548120498657e-02 2.933372557163238525e-01 -3.617079854011535645e-01
-1.835547983646392822e-01 -8.782938867807388306e-02 -4.299587607383728027e-01
-4.614251852035522461e-02 -2.624947726726531982e-01 4.265040457248687744e-01
-1.446370035409927368e-01 -2.612740099430084229e-01 -3.651615381240844727e-01
-1.756211668252944946e-01 -3.406611457467079163e-02 4.507206976413726807e-01
2.434487938880920410e-01 1.745016574859619141e-01 -1.421446800231933594e-01
-3.320979699492454529e-02 -4.098395109176635742e-01 1.227535605430603027e-01
2.101161926984786987e-01 -8.233487606048583984e-02 3.757752776145935059e-01
-2.016604542732238770e-01 -2.174934931099414825e-02 -4.104166328907012939e-01
-2.702658772468566895e-01 1.562481969594955444e-01 7.711305469274520874e-02
-1.430304348468780518e-01 2.494889497756958008e-01 -3.352459967136383057e-01
-2.032584976404905319e-03 4.485405609011650085e-02 -5.388277173042297363e-01
6.590598821640014648e-02 -2.737016379833221436e-01 4.017305076122283936e-01
-3.087281808257102966e-02 -2.629997432231903076e-01 4.306864142417907715e-01
2.127145379781723022e-01 -2.687998712062835693e-01 -8.623251318931579590e-02
1.338725686073303223e-01 3.551623523235321045e-01 -9.159040451049804688e-02
3.168127685785293579e-02 -4.192434549331665039e-01 2.273070998489856720e-02
-2.944488227367401123e-01 -7.355650886893272400e-03 5.764947831630706787e-02
-2.640024721622467041e-01 -1.897617727518081665e-01 7.427863776683807373e-02
2.448416501283645630e-01 1.312478780746459961e-01 -1.951353698968887329e-01
2.456388026475906372e-01 -1.233919933438301086e-01 2.457748353481292725e-01
2.990948967635631561e-02 3.615708053112030029e-01 -2.348286211490631104e-01
2.066760361194610596e-01 -2.799836397171020508e-01 -8.070117235183715820e-02
6.235162168741226196e-02 3.164151310920715332e-01 3.736993968486785889e-01
2.848426997661590576e-01 -2.183543331921100616e-02 -6.561616435647010803e-03
-2.095434069633483887e-01 1.492202132940292358e-01 -3.277340233325958252e-01
-1.856169253587722778e-01 2.905419766902923584e-01 -1.684107482433319092e-01
2.821473479270935059e-01 -4.230825603008270264e-02 8.892900496721267700e-02
-8.829176425933837891e-02 -2.842875421047210693e-01 -3.951048552989959717e-01
-2.571985423564910889e-01 -4.589958116412162781e-02 -2.785362005233764648e-01
-1.452042609453201294e-01 1.872899681329727173e-01 4.307982623577117920e-01
-6.881211698055267334e-02 -2.375212907791137695e-01 4.418278634548187256e-01
2.465068846940994263e-01 -4.046312719583511353e-02 -2.517434060573577881e-01
-6.293232738971710205e-02 2.202916145324707031e-01 -4.355895817279815674e-01
1.415470987558364868e-01 2.831867337226867676e-01 -2.642334401607513428e-01
6.339614093303680420e-02 3.341791629791259766e-01 -2.724963128566741943e-01
-2.378504574298858643e-01 1.964401453733444214e-01 -1.845332682132720947e-01
2.078246325254440308e-01 2.843375504016876221e-01 9.482517838478088379e-02
1.282175183296203613e-01 -7.683029770851135254e-02 -4.707655608654022217e-01
-2.618693113327026367e-01 7.857736200094223022e-02 -2.325918972492218018e-01
-3.167548775672912598e-02 2.722319364547729492e-01 4.431105554103851318e-01
2.218093127012252808e-01 2.628410458564758301e-01 2.210386097431182861e-03
-2.909540832042694092e-01 1.498811971396207809e-02 9.809233993291854858e-02
1.734959185123443604e-01 -5.735973827540874481e-03 4.598770141601562500e-01
-2.270050048828125000e-01 -1.721509248018264771e-01 -2.982228100299835205e-01
2.435196936130523682e-01 -1.982516348361968994e-01 -1.038677170872688293e-01
-1.475636363029479980e-01 -3.250561952590942383e-01 -2.564361095428466797e-01
7.866049557924270630e-02 3.770957887172698975e-01 -1.422474682331085205e-01
-2.704652845859527588e-01 1.062932237982749939e-01 1.747687309980392456e-01
-2.361072301864624023e-01 2.273226827383041382e-01 -1.189157739281654358e-01
9.213243424892425537e-02 -3.150393664836883545e-01 3.189333379268646240e-01
-1.618462502956390381e-01 -1.675947457551956177e-01 4.117874801158905029e-01
-9.530743956565856934e-02 1.848249286413192749e-01 4.836345911026000977e-01
-1.317040175199508667e-01 -1.983571648597717285e-01 4.254199862480163574e-01
-1.554403454065322876e-01 -3.403308987617492676e-02 4.773249030113220215e-01
5.588254332542419434e-02 2.378844320774078369e-01 4.708248674869537354e-01
-6.780129671096801758e-02 -1.555527001619338989e-01 -5.070194005966186523e-01
1.126649603247642517e-01 2.744666039943695068e-01 -3.210989236831665039e-01
-8.096966892480850220e-02 3.960303962230682373e-01 -5.168629437685012817e-02
-2.805990874767303467e-01 -1.394729465246200562e-01 4.162791371345520020e-02
2.438456863164901733e-01 -1.773101985454559326e-01 -1.500845253467559814e-01
2.738859951496124268e-01 3.849855065345764160e-02 1.785045266151428223e-01
-2.190385907888412476e-01 2.144962698221206665e-01 2.495698183774948120e-01
-2.347334176301956177e-01 -3.339843824505805969e-02 -3.431545495986938477e-01
-2.312141805887222290e-01 -2.553093135356903076e-01 1.118684411048889160e-01
-2.662900984287261963e-01 -1.211633011698722839e-01 -2.055173963308334351e-01
-7.145255804061889648e-02 4.044711589813232422e-01 4.295101016759872437e-02
7.842943072319030762e-02 3.426067531108856201e-01 3.128904104232788086e-01
1.614169180393218994e-01 2.763285040855407715e-01 3.095594644546508789e-01
-1.483333259820938110e-01 -1.542567163705825806e-01 4.386718571186065674e-01
2.360207289457321167e-01 -1.763770356774330139e-02 -2.875530719757080078e-01
-9.892807900905609131e-02 2.613666355609893799e-01 -3.689365684986114502e-01
-4.249649494886398315e-02 1.755951493978500366e-01 -4.781868755817413330e-01
1.386931240558624268e-01 2.068749815225601196e-01 -3.672533333301544189e-01
-2.836861610412597656e-01 -7.816290855407714844e-02 1.262370496988296509e-01
-1.197691187262535095e-01 -3.074918091297149658e-01 -3.333519399166107178e-01
2.591429650783538818e-01 -1.499967426061630249e-01 -1.010499969124794006e-01
2.049229890108108521e-01 1.681379787623882294e-02 -3.613198399543762207e-01
-1.619255393743515015e-01 3.449439406394958496e-01 -3.222691267728805542e-02
-1.633339971303939819e-01 -3.048285841941833496e-01 2.361764907836914062e-01
2.521821558475494385e-01 -3.260296210646629333e-02 2.787032723426818848e-01
6.724085658788681030e-02 -2.423764765262603760e-01 -4.347762465476989746e-01
6.882921792566776276e-03 -2.818638980388641357e-01 4.119958579540252686e-01
-2.333513200283050537e-01 -1.775383800268173218e-01 -2.743479609489440918e-01
-1.172660738229751587e-01 2.486775815486907959e-01 -3.673479259014129639e-01
2.510350346565246582e-01 1.289084106683731079e-01 2.357919216156005859e-01
-1.177401840686798096e-01 -2.793616652488708496e-01 3.533692955970764160e-01
-1.414587348699569702e-01 3.551728725433349609e-01 1.391009688377380371e-01
-5.045093595981597900e-02 -3.305099308490753174e-01 -3.517547845840454102e-01
-1.131750196218490601e-01 3.319187164306640625e-01 2.853803336620330811e-01
1.878458559513092041e-01 2.158720046281814575e-01 3.381803333759307861e-01
-7.039155066013336182e-02 -4.088764488697052002e-01 -1.090553626418113708e-01
-1.659723520278930664e-01 -3.404600918292999268e-01 -1.605468988418579102e-01
2.178320884704589844e-01 -4.815306514501571655e-02 -3.315664827823638916e-01
2.564890980720520020e-01 -9.044452756643295288e-02 2.303302884101867676e-01
-1.241872459650039673e-02 2.691494226455688477e-01 4.507448375225067139e-01
-2.744583785533905029e-01 1.375593692064285278e-01 8.873426169157028198e-02
1.272682100534439087e-01 5.944292619824409485e-02 -4.674858152866363525e-01
2.026258967816829681e-02 1.809297502040863037e-01 -4.747751057147979736e-01
1.857435703277587891e-01 7.391112297773361206e-02 -3.830296099185943604e-01
-2.281731218099594116e-01 -6.181618198752403259e-02 -3.545508682727813721e-01
-1.668765544891357422e-01 -3.184317648410797119e-01 1.949048340320587158e-01
-1.129370629787445068e-01 1.346697062253952026e-01 -4.687396585941314697e-01
1.070545539259910583e-01 -3.884477317333221436e-01 2.816211618483066559e-02
1.976937949657440186e-01 4.215376079082489014e-02 -3.709020614624023438e-01
-2.183467596769332886e-01 2.743759453296661377e-01 7.938585430383682251e-02
1.051242798566818237e-01 6.961960345506668091e-02 5.280805826187133789e-01
-2.556597888469696045e-01 -2.166962325572967529e-01 -8.326853811740875244e-02
2.725607752799987793e-01 1.243601813912391663e-01 -4.552071914076805115e-03
-7.439536601305007935e-02 1.136933118104934692e-01 -5.028635859489440918e-01
-2.934556305408477783e-01 4.368814453482627869e-02 2.925657294690608978e-02
6.050528958439826965e-03 -3.478897511959075928e-01 3.100731074810028076e-01
1.028308570384979248e-01 -1.356769800186157227e-01 4.945500493049621582e-01
-7.724933326244354248e-02 1.034143790602684021e-01 5.340561270713806152e-01
4.924586415290832520e-02 -1.999560445547103882e-01 4.829218089580535889e-01
-2.487668097019195557e-01 2.523170039057731628e-02 3.019298017024993896e-01
-1.580947637557983398e-01 -3.398248553276062012e-01 -1.903671473264694214e-01
1.210556179285049438e-01 -4.747005179524421692e-02 5.131713747978210449e-01
2.113866508007049561e-01 1.651079654693603516e-01 -2.692372202873229980e-01
-6.375763565301895142e-02 -5.256796255707740784e-02 5.472045540809631348e-01
2.181758284568786621e-01 7.400597631931304932e-02 3.711034357547760010e-01
1.756819635629653931e-01 2.693593204021453857e-01 2.885240018367767334e-01
-4.993518441915512085e-02 -4.969685152173042297e-02 5.532767772674560547e-01
-1.863568089902400970e-02 4.135031104087829590e-01 9.907086193561553955e-02
-2.275031758472323418e-03 -4.417711496353149414e-02 -5.452609062194824219e-01
2.341892719268798828e-01 -1.277654021978378296e-01 2.827187776565551758e-01
-2.190074920654296875e-01 2.200659066438674927e-01 -2.132986485958099365e-01
2.354113571345806122e-02 3.207677304744720459e-01 -3.190240561962127686e-01
-2.902246713638305664e-01 2.706229127943515778e-02 -1.031965017318725586e-01
-1.212194040417671204e-01 3.700223863124847412e-01 1.412122100591659546e-01
-2.559872269630432129e-01 -1.344910711050033569e-01 2.189863026142120361e-01
2.370593398809432983e-01 -1.132833883166313171e-01 2.857980728149414062e-01
-7.685046643018722534e-02 -1.858699768781661987e-01 -4.871225357055664062e-01
-1.540341675281524658e-01 2.445013672113418579e-01 3.624790012836456299e-01
1.074806302785873413e-01 3.211793005466461182e-01 -2.487512826919555664e-01
2.123465295881032944e-03 -2.061671018600463867e-01 -4.881978631019592285e-01
-2.738359570503234863e-01 1.524536907672882080e-01 -4.847934469580650330e-04
1.916289478540420532e-01 -1.747830538079142570e-03 4.317611455917358398e-01
1.615594178438186646e-01 1.069293171167373657e-01 -4.073118567466735840e-01
1.931373775005340576e-01 3.030154407024383545e-01 -3.551812469959259033e-02
2.754522673785686493e-02 -2.531984150409698486e-01 -4.451066255569458008e-01
5.146852135658264160e-02 -4.141085147857666016e-01 -4.564886540174484253e-02
-2.095808386802673340e-01 2.910702824592590332e-01 4.020225256681442261e-02
-2.486688941717147827e-01 -2.193300426006317139e-01 -1.380725800991058350e-01
-9.415711462497711182e-02 1.068903580307960510e-01 5.222615003585815430e-01
-2.690564692020416260e-01 -1.856661289930343628e-01 -3.794799745082855225e-02
-1.806284487247467041e-01 2.142093926668167114e-01 -3.185900747776031494e-01
1.283618248999118805e-02 -3.365796506404876709e-01 -3.455260097980499268e-01
-1.377201080322265625e-01 3.312986195087432861e-01 2.387229353189468384e-01
-2.432101219892501831e-01 -1.017926558852195740e-01 2.889447510242462158e-01
2.636548876762390137e-01 -1.347130089998245239e-01 -9.501318633556365967e-02
1.377505213022232056e-01 -1.781266033649444580e-01 4.325923323631286621e-01
-2.220037877559661865e-01 -2.440368235111236572e-01 -2.155599296092987061e-01
-7.171896845102310181e-02 -3.360694944858551025e-01 3.070815205574035645e-01
-2.757948637008666992e-01 5.533762276172637939e-02 1.871373206377029419e-01
1.619176119565963745e-01 3.210384547710418701e-01 2.037857770919799805e-01
-2.045924812555313110e-01 -2.887166440486907959e-01 1.459452062845230103e-01
-4.755882173776626587e-02 -1.676980853080749512e-01 -5.075496435165405273e-01
1.011830344796180725e-01 3.278040289878845215e-01 -2.439683675765991211e-01
1.935006864368915558e-02 3.823481500148773193e-01 2.534883022308349609e-01
-1.384551525115966797e-01 -8.113078773021697998e-02 -4.853597879409790039e-01
-2.544977068901062012e-01 -1.351859271526336670e-01 -2.431334853172302246e-01
-2.848106920719146729e-01 9.306716918945312500e-02 -7.106614857912063599e-02
-1.602598875761032104e-01 1.901286095380783081e-01 -3.776713609695434570e-01
2.218252718448638916e-01 2.600345015525817871e-01 -2.354723028838634491e-02
-1.464489102363586426e-01 -3.742704689502716064e-01 -2.771342732012271881e-02
2.582514286041259766e-01 -1.540883332490921021e-01 1.311465054750442505e-01
-2.084716707468032837e-01 -2.410049140453338623e-01 -2.655655145645141602e-01
-2.701938450336456299e-01 1.540712565183639526e-01 -7.230099290609359741e-02
1.086411923170089722e-01 3.310267925262451172e-01 3.001216351985931396e-01
-2.166103422641754150e-01 2.809136807918548584e-01 2.698943763971328735e-02
2.708994746208190918e-01 -4.926005378365516663e-02 1.850602030754089355e-01
2.465094178915023804e-01 -2.083493024110794067e-01 3.976305574178695679e-02
1.157919391989707947e-01 1.124536097049713135e-01 -4.591852128505706787e-01
-1.715098917484283447e-01 2.900322973728179932e-01 2.527859807014465332e-01
-9.157999604940414429e-02 -3.448662459850311279e-01 2.707804143428802490e-01
-2.801360785961151123e-01 1.804949529469013214e-02 -1.806339770555496216e-01
2.468346208333969116e-01 8.822057396173477173e-02 2.835285961627960205e-01
-2.594921588897705078e-01 -2.130463719367980957e-01 4.501830786466598511e-03
1.399854868650436401e-01 -2.873381674289703369e-01 -2.960776686668395996e-01
1.172344386577606201e-01 3.208046257495880127e-01 -2.343565076589584351e-01
-1.703522503376007080e-01 1.162720397114753723e-01 4.384125769138336182e-01
-4.099673032760620117e-02 2.671665549278259277e-01 4.453784525394439697e-01
2.487700134515762329e-01 1.852078586816787720e-01 -8.632537722587585449e-02
-1.971608549356460571e-01 -3.192358314990997314e-01 -8.837695419788360596e-02
-1.770479381084442139e-01 -2.279599905014038086e-01 3.304904103279113770e-01
2.181786596775054932e-01 -1.887660622596740723e-01 -2.416093647480010986e-01
-1.846325397491455078e-01 -3.165034949779510498e-01 -1.739952862262725830e-01
7.193072885274887085e-02 2.983974814414978027e-01 -3.274480998516082764e-01
2.297095507383346558e-01 -1.450603753328323364e-01 -2.504808604717254639e-01
-1.936247646808624268e-01 5.221475288271903992e-02 4.218882322311401367e-01
2.481403499841690063e-01 -1.948999762535095215e-01 -7.255418598651885986e-02
1.527434289455413818e-01 -2.911816537380218506e-01 2.676761448383331299e-01
2.320610880851745605e-01 -1.515900790691375732e-01 -2.361877411603927612e-01
2.253614217042922974e-01 1.249036416411399841e-01 3.286162018775939941e-01
8.160796016454696655e-03 4.134179651737213135e-02 -5.385016202926635742e-01
1.597230136394500732e-01 3.394014537334442139e-01 1.319147199392318726e-01
7.884275913238525391e-02 -1.783328205347061157e-01 -4.740402102470397949e-01
-1.167545765638351440e-01 3.796591162681579590e-01 9.071728587150573730e-02
-2.313362509012222290e-01 -1.163118146359920502e-02 3.496822714805603027e-01
-6.224582344293594360e-02 -1.909598410129547119e-01 4.844930768013000488e-01
-2.241912037134170532e-01 2.435840219259262085e-01 -1.381852924823760986e-01
1.456267386674880981e-01 3.544027507305145264e-01 1.183794364333152771e-01
2.844130396842956543e-01 9.550499729812145233e-03 -2.651839517056941986e-02
-2.577926814556121826e-01 -1.936242729425430298e-01 1.162084639072418213e-01
2.591270506381988525e-01 3.291042149066925049e-02 2.564332783222198486e-01
1.912661194801330566e-01 3.065900504589080811e-01 1.073076650500297546e-01
-1.826255321502685547e-01 -3.125686645507812500e-01 -1.940009295940399170e-01
-2.741651237010955811e-01 1.415143162012100220e-01 7.950466871261596680e-02
1.539790332317352295e-01 2.177629172801971436e-01 -3.333131670951843262e-01
2.307024449110031128e-01 -2.328687161207199097e-01 1.105776280164718628e-01
-5.667370557785034180e-02 3.973937928676605225e-01 1.629615724086761475e-01
5.482757836580276489e-02 1.160543635487556458e-01 -5.003448128700256348e-01
-1.789361685514450073e-01 3.699400648474693298e-02 4.476853609085083008e-01
2.341107428073883057e-01 2.029914110898971558e-01 2.067730128765106201e-01
-3.224014490842819214e-02 -3.398030996322631836e-01 3.214809894561767578e-01
1.920846104621887207e-01 -3.081802725791931152e-01 -1.931038126349449158e-02
-9.894952923059463501e-02 -3.020263016223907471e-01 -3.633960783481597900e-01
1.685454100370407104e-01 -3.323259651660919189e-01 -7.627645879983901978e-02
-1.220469921827316284e-01 2.261084914207458496e-01 4.259825646877288818e-01
2.573791146278381348e-02 -3.240308761596679688e-01 3.486100435256958008e-01
-2.102764248847961426e-01 2.070662975311279297e-01 2.873608767986297607e-01
2.445100098848342896e-01 2.661073952913284302e-02 3.100526630878448486e-01
6.418389081954956055e-02 3.986363112926483154e-01 1.432471722364425659e-01
2.488844543695449829e-01 1.377485245466232300e-01 -1.702619791030883789e-01
-2.398607432842254639e-01 -4.433137364685535431e-03 -3.302689194679260254e-01
1.203417927026748657e-01 -1.938751935958862305e-01 4.390711784362792969e-01
2.354767024517059326e-01 -2.252759039402008057e-01 -7.826550304889678955e-02
-2.549053132534027100e-01 2.020325213670730591e-01 -5.141956359148025513e-02
-4.221522808074951172e-02 -2.749983966350555420e-01 4.136024415493011475e-01
-6.378848850727081299e-02 4.036265909671783447e-01 -3.853972256183624268e-02
-2.914445698261260986e-01 -2.272280305624008179e-02 -1.037741452455520630e-01
-2.288734316825866699e-01 2.229382693767547607e-01 1.954710334539413452e-01
-1.399699598550796509e-01 -2.906801104545593262e-01 -3.322292864322662354e-01
-5.955117195844650269e-02 1.014842987060546875e-01 -5.139636993408203125e-01
-2.539210915565490723e-01 -2.031265050172805786e-01 1.186704486608505249e-01
-1.793654114007949829e-01 -4.846403002738952637e-02 -4.432373940944671631e-01
-1.480256170034408569e-01 -3.628703355789184570e-01 -1.314017474651336670e-01
-1.140235885977745056e-01 -1.360017806291580200e-01 4.847179949283599854e-01
-1.322964429855346680e-01 2.024467885494232178e-01 4.349127709865570068e-01
-2.024761214852333069e-02 2.509533194825053215e-03 -5.452239513397216797e-01
6.080830097198486328e-02 -4.095257520675659180e-01 -6.742581725120544434e-02
-1.986388862133026123e-01 -3.218787908554077148e-01 -9.075038135051727295e-03
-7.103686034679412842e-02 -3.930045664310455322e-01 1.588487625122070312e-01
1.078874021768569946e-01 -3.006975054740905762e-01 3.251076340675354004e-01
-2.396462112665176392e-01 1.980361938476562500e-01 -1.733550727367401123e-01
-1.402405798435211182e-01 -3.006638586521148682e-01 -3.161447942256927490e-01
-1.349005550146102905e-01 3.694458603858947754e-01 5.809766054153442383e-02
-1.083980128169059753e-01 -3.563442528247833252e-01 2.209312617778778076e-01
1.528971940279006958e-01 3.458220958709716797e-01 1.329461634159088135e-01
-2.841583192348480225e-01 1.076312810182571411e-01 3.756771236658096313e-02
1.756870001554489136e-01 -1.075901910662651062e-01 -3.978076875209808350e-01
2.163402289152145386e-01 1.330292522907257080e-01 -2.850797176361083984e-01
2.785750925540924072e-01 -6.088849529623985291e-02 1.131291985511779785e-01
-6.269050389528274536e-02 9.960858523845672607e-02 5.426334142684936523e-01
2.008250206708908081e-01 2.359881252050399780e-01 -2.038271129131317139e-01
1.120603308081626892e-01 5.341497808694839478e-02 -4.837830960750579834e-01
1.770120263099670410e-01 3.190397843718528748e-02 4.550248980522155762e-01
6.853541731834411621e-02 -4.086984097957611084e-01 9.461065754294395447e-03
2.432611584663391113e-01 -1.158683225512504578e-01 2.620908617973327637e-01
-2.829934060573577881e-01 9.760869294404983521e-02 -8.352501690387725830e-02
-2.384324967861175537e-01 -2.351379394531250000e-01 1.301050335168838501e-01
8.556792885065078735e-02 3.658837974071502686e-01 -1.694742888212203979e-01
-2.894821166992187500e-01 8.034978061914443970e-02 8.104413747787475586e-03
-2.809865176677703857e-01 -1.437117457389831543e-01 -5.593387410044670105e-03
9.653923660516738892e-02 2.969610691070556641e-01 -3.062028288841247559e-01
1.895498335361480713e-01 -2.632110416889190674e-01 2.279657274484634399e-01
-1.415573526173830032e-02 2.629217505455017090e-01 -4.035148918628692627e-01
2.578817307949066162e-01 -1.689430922269821167e-01 8.904857188463211060e-02
2.755816280841827393e-01 9.585167467594146729e-02 -4.608380794525146484e-02
6.897998601198196411e-02 -3.284260630607604980e-01 -3.255979120731353760e-01
5.478140711784362793e-02 -4.842980951070785522e-02 5.532464385032653809e-01
2.288747876882553101e-01 1.625260710716247559e-01 -2.194770127534866333e-01
-1.384424567222595215e-01 -3.799920976161956787e-01 3.931567072868347168e-03
3.674436360597610474e-02 -4.046035408973693848e-01 1.329253911972045898e-01
2.209448218345642090e-01 -2.515101432800292969e-01 1.127346903085708618e-01
-8.124143630266189575e-02 -3.065347075462341309e-01 -3.710239231586456299e-01
2.539699673652648926e-01 -1.866171061992645264e-01 -2.960136719048023224e-02
-8.366835862398147583e-02 3.918000161647796631e-01 -7.495208829641342163e-02
-2.551576793193817139e-01 -2.219268381595611572e-01 -5.707465112209320068e-02
5.329569429159164429e-02 -1.855222284793853760e-01 4.921435415744781494e-01
-2.843296527862548828e-01 1.058613732457160950e-01 -3.569722920656204224e-02
2.626713514328002930e-01 -6.004408001899719238e-02 2.232552021741867065e-01
-1.651533320546150208e-02 -3.877100944519042969e-01 -2.388673722743988037e-01
-2.337294667959213257e-01 -2.614276707172393799e-01 6.593594700098037720e-02
-1.790507696568965912e-02 -7.309444248676300049e-02 5.552763342857360840e-01
-1.500386297702789307e-01 -2.460893094539642334e-01 -3.751566410064697266e-01
-5.050787329673767090e-02 2.191993147134780884e-01 4.857859909534454346e-01
1.354382336139678955e-01 1.762675940990447998e-01 -3.982680141925811768e-01
1.394492387771606445e-01 1.698030531406402588e-01 4.564737081527709961e-01
1.890678256750106812e-01 -2.525541484355926514e-01 -2.378333806991577148e-01
1.657505035400390625e-01 2.578808069229125977e-01 -2.583548128604888916e-01
2.654338181018829346e-01 -1.172655299305915833e-01 -1.116195991635322571e-01
-1.801583766937255859e-01 1.329040229320526123e-01 4.148968160152435303e-01
-3.949418663978576660e-02 -3.200424015522003174e-01 -3.714746236801147461e-01
2.691420018672943115e-01 -5.829491466283798218e-02 -1.453969776630401611e-01
1.397512853145599365e-01 -1.459550857543945312e-01 4.531590044498443604e-01
2.531439363956451416e-01 1.757645756006240845e-01 1.478820145130157471e-01
6.424067914485931396e-02 1.250626612454652786e-02 -5.246255993843078613e-01
1.770453155040740967e-01 -1.737690903246402740e-02 -4.136493504047393799e-01
-5.304523557424545288e-02 -2.901233136653900146e-01 -4.068832993507385254e-01
-9.368770569562911987e-02 -3.893507122993469238e-01 1.358046829700469971e-01
-5.262935161590576172e-02 3.808726072311401367e-01 2.352602183818817139e-01
-2.921130061149597168e-01 1.359449978917837143e-02 8.567506074905395508e-02
2.450097948312759399e-01 -1.989696025848388672e-01 -8.892174810171127319e-02
-2.805321812629699707e-01 -8.548469096422195435e-02 1.419094651937484741e-01
-1.556195467710494995e-01 -3.227206766605377197e-01 -2.442618012428283691e-01
1.096804589033126831e-01 -3.633754849433898926e-01 1.741877794265747070e-01
-2.838410139083862305e-01 1.025916486978530884e-01 6.516204029321670532e-02
-2.771199643611907959e-01 7.508703321218490601e-02 1.659808456897735596e-01
6.160930544137954712e-02 -9.336233884096145630e-02 -5.190400481224060059e-01
-7.974614948034286499e-02 -1.929588168859481812e-01 -4.813598692417144775e-01
2.766920626163482666e-01 -9.419617243111133575e-03 1.629144400358200073e-01
3.124246932566165924e-02 -8.836186677217483521e-02 5.489206314086914062e-01
1.059709340333938599e-01 -3.898318111896514893e-01 -1.998776383697986603e-02
4.472167789936065674e-02 8.290570229291915894e-02 5.559008121490478516e-01
-1.918564587831497192e-01 -3.300834000110626221e-01 -3.839657641947269440e-03
-2.204569131135940552e-01 -2.865644097328186035e-01 5.101145803928375244e-02
8.517134189605712891e-02 1.049858480691909790e-01 -4.877173304557800293e-01
3.523048013448715210e-03 2.154352217912673950e-01 -4.504468441009521484e-01
2.281843423843383789e-01 -2.492424398660659790e-01 3.347416222095489502e-02
-2.774719297885894775e-01 7.086048834025859833e-03 1.933872699737548828e-01
-2.717128694057464600e-01 1.563155464828014374e-02 2.199906855821609497e-01
2.391038686037063599e-01 1.424442678689956665e-01 -2.055456191301345825e-01
-2.079701274633407593e-01 2.293026596307754517e-01 2.616580724716186523e-01
8.030170202255249023e-02 2.358568012714385986e-01 4.593617022037506104e-01
-6.998082250356674194e-02 4.022342562675476074e-01 -3.158915042877197266e-02
-1.457889527082443237e-01 -3.005384504795074463e-01 2.800353467464447021e-01
-2.173045128583908081e-01 -2.764096558094024658e-01 1.225747242569923401e-01
1.020287275314331055e-01 2.545244991779327393e-01 4.237153232097625732e-01
-2.440735846757888794e-01 -1.081129536032676697e-01 2.823112010955810547e-01
1.543243378400802612e-01 2.014763951301574707e-01 4.133552610874176025e-01
2.781716585159301758e-01 4.038809239864349365e-02 1.448369771242141724e-01
1.527478098869323730e-01 -2.676073610782623291e-01 -3.020862340927124023e-01
2.857527732849121094e-01 9.912588633596897125e-03 2.355679497122764587e-02
1.693053096532821655e-01 -2.977112308144569397e-04 4.661778211593627930e-01
