6.756046414375305176e-02 -4.058736860752105713e-01 -6.181982159614562988e-01
1.131452918052673340e-01 1.783820837736129761e-01 6.646485924720764160e-01
-1.296299393288791180e-03 1.093289032578468323e-01 -1.006576418876647949e+00
-6.312085688114166260e-02 -5.201401114463806152e-01 -4.744656085968017578e-01
1.485628187656402588e-01 -3.153284639120101929e-02 3.399294912815093994e-01
-1.433971822261810303e-01 -1.316631138324737549e-01 3.887478411197662354e-01
1.206076592206954956e-01 4.218867719173431396e-01 -7.864281535148620605e-02
7.394185662269592285e-02 5.754162073135375977e-01 -9.620723128318786621e-02
-4.094631224870681763e-02 -6.204023361206054688e-01 4.639507830142974854e-02
-1.026258915662765503e-01 5.761155486106872559e-02 7.476745247840881348e-01
-1.313887089490890503e-01 3.203297257423400879e-01 2.776575684547424316e-01
5.299995094537734985e-02 6.093933582305908203e-01 -1.410638540983200073e-01
-1.176388114690780640e-01 4.277291297912597656e-01 1.621560007333755493e-01
1.227845549583435059e-01 1.670184731483459473e-01 5.986373424530029297e-01
-8.232273161411285400e-02 4.699759185314178467e-01 4.473651051521301270e-01
-7.564638555049896240e-02 5.381504297256469727e-01 2.912754416465759277e-01
-9.454682469367980957e-02 -1.723738312721252441e-01 7.481316328048706055e-01
2.452252805233001709e-02 -3.956289291381835938e-01 -7.687996625900268555e-01
-8.287583291530609131e-02 5.592242479324340820e-01 -1.352709438651800156e-02
-5.713441967964172363e-02 -5.473822355270385742e-01 3.752983510494232178e-01
6.354364752769470215e-02 4.769875109195709229e-01 5.670180916786193848e-01
-1.330063939094543457e-01 3.521878123283386230e-01 1.375617980957031250e-01
-1.601047217845916748e-01 -5.375684052705764771e-02 -1.987051814794540405e-01
8.057358860969543457e-02 -4.789871871471405029e-01 3.947065174579620361e-01
1.267068833112716675e-01 3.932373225688934326e-01 -3.933349996805191040e-02
-9.695918858051300049e-02 -4.709798693656921387e-01 -3.784042596817016602e-01
1.331433504819869995e-01 8.010458201169967651e-03 -5.067428946495056152e-01
5.962380394339561462e-02 6.062415838241577148e-01 7.181975059211254120e-03
-1.135036498308181763e-01 -3.176361918449401855e-01 4.953201413154602051e-01
-9.426480531692504883e-02 3.279851973056793213e-01 6.161852478981018066e-01
-1.502802968025207520e-01 -2.446052581071853638e-01 3.403153643012046814e-02
6.394091248512268066e-02 -2.968864515423774719e-02 -9.084486365318298340e-01
-1.167457252740859985e-01 4.337194263935089111e-01 -2.285365611314773560e-01
-7.551190257072448730e-02 1.487218588590621948e-01 8.405364155769348145e-01
-9.972694516181945801e-02 1.670192480087280273e-01 -7.919042706489562988e-01
1.418155580759048462e-01 -2.529607117176055908e-01 8.433422446250915527e-02
-7.831194996833801270e-02 4.874977469444274902e-01 -4.907269477844238281e-01
1.509287655353546143e-01 2.934584207832813263e-02 3.015050590038299561e-01
1.414076685905456543e-01 -2.399799972772598267e-01 -1.323628276586532593e-01
1.013036072254180908e-01 -4.618082046508789062e-01 1.859730780124664307e-01
-1.517088413238525391e-01 -2.159592360258102417e-01 -1.917228400707244873e-01
-1.474914699792861938e-01 1.962399035692214966e-01 -3.342264592647552490e-01
-1.587776392698287964e-01 1.313837617635726929e-01 -5.737071484327316284e-02
-5.403056368231773376e-02 5.004433989524841309e-01 5.327513813972473145e-01
8.132671937346458435e-04 -6.035582423210144043e-01 -3.294375836849212646e-01
-1.618681102991104126e-01 2.522378414869308472e-02 1.504532713443040848e-02
-9.719824790954589844e-02 4.347153306007385254e-01 4.134160578250885010e-01
1.047486364841461182e-01 -1.964117735624313354e-01 6.854127645492553711e-01
-9.274829924106597900e-02 3.975678980350494385e-01 -5.887666344642639160e-01
-1.507078856229782104e-01 1.006696894764900208e-01 -3.877431750297546387e-01
8.802269399166107178e-02 -2.072755545377731323e-01 -7.419717311859130859e-01
-9.707379341125488281e-02 -5.151919722557067871e-01 -1.430523991584777832e-01
9.820561110973358154e-02 4.668418169021606445e-01 -3.217244446277618408e-01
1.238574087619781494e-01 5.152811855077743530e-02 6.338141560554504395e-01
-1.107785254716873169e-01 -1.948555856943130493e-01 6.421636939048767090e-01
1.047013849020004272e-01 3.416264355182647705e-01 -5.300331115722656250e-01
-8.635418117046356201e-02 5.506512522697448730e-01 -3.723701462149620056e-02
-1.594435274600982666e-01 -1.144226565957069397e-01 3.727314993739128113e-02
-1.099169701337814331e-01 4.736518561840057373e-01 5.639053881168365479e-02
-1.521781384944915771e-01 -1.484700106084346771e-02 -4.006940424442291260e-01
1.393608450889587402e-01 -1.128804311156272888e-01 4.371619522571563721e-01
-1.498536765575408936e-01 3.297961503267288208e-02 -4.333405494689941406e-01
1.451785266399383545e-01 3.383906558156013489e-02 4.056954979896545410e-01
1.479439586400985718e-01 9.243874996900558472e-02 3.404186666011810303e-01
-9.018242359161376953e-02 4.811884164810180664e-01 3.527570664882659912e-01
4.138882085680961609e-02 2.125325649976730347e-01 9.178674221038818359e-01
5.418119579553604126e-02 -5.405183434486389160e-01 3.826000094413757324e-01
9.798818826675415039e-02 -4.665895104408264160e-01 2.283401936292648315e-01
9.850402176380157471e-02 -2.190603464841842651e-01 7.044500708580017090e-01
-1.469298750162124634e-01 -1.939377039670944214e-01 2.693122029304504395e-01
1.318601518869400024e-01 3.378098607063293457e-01 -1.882768422365188599e-01
1.036478132009506226e-01 4.674988389015197754e-01 2.738406658172607422e-01
6.255757808685302734e-02 -4.675227701663970947e-01 -5.264163017272949219e-01
1.509018242359161377e-01 -6.784360855817794800e-02 -2.111065089702606201e-01
7.055038213729858398e-02 -6.925450265407562256e-02 -8.794561028480529785e-01
1.476986408233642578e-01 2.109508067369461060e-01 -1.297633498907089233e-01
-1.232916563749313354e-01 4.210803508758544922e-01 -2.814622968435287476e-02
1.352021396160125732e-01 -3.065915703773498535e-01 1.022833399474620819e-03
-1.029118746519088745e-01 -4.971621930599212646e-01 7.948077470064163208e-02
1.483038067817687988e-01 2.263175100088119507e-01 7.257534563541412354e-02
6.619843840599060059e-02 4.261629879474639893e-01 6.470141410827636719e-01
-1.575303971767425537e-01 1.464602947235107422e-01 -1.192734912037849426e-01
-1.543187350034713745e-01 4.985543899238109589e-03 -3.629598617553710938e-01
-1.257675141096115112e-01 -3.641256093978881836e-01 -3.430227041244506836e-01
1.384299844503402710e-01 9.709624946117401123e-02 -4.310494661331176758e-01
-6.473042070865631104e-03 6.492083072662353516e-01 -1.095857694745063782e-01
-6.795661151409149170e-02 5.842804908752441406e-01 1.154473349452018738e-01
1.116174757480621338e-01 3.912400305271148682e-01 4.073671996593475342e-01
-7.113251090049743652e-02 5.008531212806701660e-01 -5.002196431159973145e-01
-9.456092119216918945e-02 5.191953778266906738e-01 1.184975728392601013e-01
-1.456715017557144165e-01 8.890602737665176392e-02 3.804669380187988281e-01
9.250728785991668701e-02 4.230530560016632080e-01 -4.860216379165649414e-01
1.477150022983551025e-01 2.233101278543472290e-01 1.368375271558761597e-01
-6.385648250579833984e-02 5.205714702606201172e-01 4.359814226627349854e-01
-1.492297053337097168e-01 -2.593319118022918701e-01 -1.925195939838886261e-02
1.349912136793136597e-01 1.903757601976394653e-01 4.571901559829711914e-01
-5.451326444745063782e-02 4.030275940895080566e-01 6.984571218490600586e-01
-1.617288738489151001e-01 5.149150267243385315e-02 -6.698464602231979370e-02
-6.113156676292419434e-02 -4.029213190078735352e-01 6.687128543853759766e-01
8.858895301818847656e-02 -5.121624097228050232e-02 -8.091925382614135742e-01
1.553352624177932739e-01 -1.390447095036506653e-02 -1.041021570563316345e-01
1.533405333757400513e-01 -1.068715974688529968e-01 -5.137464404106140137e-02
-1.114921122789382935e-01 -2.295418232679367065e-01 6.103159785270690918e-01
1.478530764579772949e-01 -7.574333995580673218e-02 -2.741640806198120117e-01
1.234899163246154785e-01 -3.778872787952423096e-01 3.446227684617042542e-02
1.377296149730682373e-01 1.268735341727733612e-02 5.043622851371765137e-01
1.346340216696262360e-02 -3.591227829456329346e-01 8.176583051681518555e-01
-3.514310717582702637e-02 6.213310956954956055e-01 1.979947239160537720e-01
9.527410566806793213e-02 -5.318151786923408508e-02 8.039100170135498047e-01
1.544139385223388672e-01 1.309015750885009766e-01 6.869678944349288940e-02
-1.183846294879913330e-01 4.428666830062866211e-01 -6.654513068497180939e-03
-6.402126699686050415e-02 5.507392883300781250e-01 -3.917986452579498291e-01
-7.649129629135131836e-02 4.235806763172149658e-01 -6.337952017784118652e-01
1.566868275403976440e-01 5.559161677956581116e-02 1.953361928462982178e-02
-4.076670389622449875e-03 4.588432610034942627e-01 -7.323128581047058105e-01
-1.456640213727951050e-01 -2.905977368354797363e-01 -3.978755325078964233e-02
-4.888094216585159302e-02 -6.115437150001525879e-01 -9.816645830869674683e-02
-1.429428458213806152e-01 2.978064715862274170e-01 6.012340635061264038e-02
-1.554546356201171875e-01 -1.907995343208312988e-02 -3.399125635623931885e-01
1.530934721231460571e-01 1.524375677108764648e-01 -4.438920691609382629e-02
1.357770711183547974e-01 2.734969556331634521e-01 3.276330828666687012e-01
-1.530198007822036743e-01 -7.915557920932769775e-02 -3.656673431396484375e-01
1.232559680938720703e-01 -2.434512525796890259e-01 4.886237680912017822e-01
5.884095653891563416e-02 5.407250523567199707e-01 -4.246425628662109375e-01
1.132420301437377930e-01 3.931385278701782227e-02 7.112832069396972656e-01
1.230737417936325073e-01 -1.670181006193161011e-01 5.719867944717407227e-01
1.509137898683547974e-01 1.493141055107116699e-02 -2.470780462026596069e-01
-1.185562461614608765e-01 3.827235996723175049e-01 -3.873860239982604980e-01
1.498312652111053467e-01 -1.418100595474243164e-01 1.866024583578109741e-01
-5.430810153484344482e-03 -1.117065399885177612e-01 9.816043376922607422e-01
1.432691067457199097e-01 2.785072326660156250e-01 6.741653382778167725e-02
1.251744329929351807e-01 -9.332630038261413574e-02 -5.574463605880737305e-01
-5.740173906087875366e-02 2.850050926208496094e-01 -8.636077046394348145e-01
1.522526144981384277e-01 -1.196396499872207642e-01 -7.977375388145446777e-02
1.028187572956085205e-01 -4.682365953922271729e-01 4.241061210632324219e-02
1.107219159603118896e-01 -4.108945429325103760e-01 -2.222238779067993164e-01
4.465873911976814270e-02 -3.239847421646118164e-01 -8.065725564956665039e-01
1.190756708383560181e-01 8.521255850791931152e-02 -6.242247819900512695e-01
-8.378757536411285400e-02 5.369188189506530762e-01 2.014311254024505615e-01
1.110441535711288452e-01 1.006834954023361206e-01 7.135072946548461914e-01
8.995212614536285400e-02 2.481582015752792358e-01 7.485469579696655273e-01
-1.574748158454895020e-01 -1.085208281874656677e-01 1.390452384948730469e-01
1.496920287609100342e-01 -1.328076720237731934e-01 -1.564738154411315918e-01
-1.004376411437988281e-01 9.226854890584945679e-02 7.510951757431030273e-01
-7.472062949091196060e-03 6.323859691619873047e-01 2.348285466432571411e-01
-6.397119164466857910e-02 -5.772805809974670410e-01 -2.357857823371887207e-01
-1.326623708009719849e-01 8.649465441703796387e-02 -6.114713549613952637e-01
-7.026293873786926270e-02 4.128847718238830566e-01 -6.783879995346069336e-01
-1.067575216293334961e-01 4.623147547245025635e-01 -2.852228283882141113e-01
-1.286742091178894043e-01 3.159077763557434082e-01 -4.115609526634216309e-01
1.116116195917129517e-01 -1.333807706832885742e-01 -6.462924480438232422e-01
8.417947590351104736e-02 5.444663763046264648e-01 -1.592264026403427124e-01
1.443612575531005859e-01 2.619994580745697021e-01 -7.158895581960678101e-02
3.998462110757827759e-03 5.833929777145385742e-01 -4.641953408718109131e-01
-5.902753025293350220e-02 -1.453303992748260498e-01 8.921175003051757812e-01
-1.293090283870697021e-01 3.471345603466033936e-01 2.405447214841842651e-01
7.132545113563537598e-02 2.799233794212341309e-01 -7.833928465843200684e-01
-1.011627763509750366e-01 3.229382038116455078e-01 -6.479456424713134766e-01
-1.368141025304794312e-01 2.018348574638366699e-01 4.014108180999755859e-01
-9.617541730403900146e-02 -5.020561218261718750e-01 -2.590217292308807373e-01
1.240071803331375122e-01 3.490262627601623535e-01 -3.075496256351470947e-01
-1.408850103616714478e-01 -3.063337802886962891e-01 1.314628422260284424e-01
8.121365308761596680e-02 -4.412861466407775879e-01 -4.681521356105804443e-01
-1.130359023809432983e-01 3.413640558719635010e-01 4.580079913139343262e-01
-7.420626282691955566e-02 2.830627560615539551e-01 7.602828741073608398e-01
-1.273947507143020630e-01 1.736374944448471069e-02 -6.701181530952453613e-01
-1.306588202714920044e-01 -3.862134516239166260e-01 1.904129981994628906e-02
6.773161888122558594e-02 -4.790275394916534424e-01 -4.693545103073120117e-01
5.902282893657684326e-02 -5.190650224685668945e-01 -4.127147793769836426e-01
-1.232039630413055420e-01 3.272011876106262207e-01 3.768203854560852051e-01
-1.466664671897888184e-01 1.868550479412078857e-01 -3.645280003547668457e-01
1.350919902324676514e-01 3.409051895141601562e-01 -4.518260434269905090e-02
2.145270258188247681e-02 9.805388748645782471e-02 9.839069843292236328e-01
3.905121609568595886e-02 -6.030362248420715332e-01 -1.628403663635253906e-01
1.249489188194274902e-01 -3.252815008163452148e-01 3.050398528575897217e-01
7.584819197654724121e-02 5.241780728101730347e-02 -8.675051331520080566e-01
-9.309679269790649414e-02 -2.302940487861633301e-01 -7.810608148574829102e-01
-5.474566668272018433e-02 5.384355038404464722e-02 9.283304214477539062e-01
-8.569543063640594482e-02 5.161756873130798340e-01 2.760069668292999268e-01
-1.386609524488449097e-01 2.946043573319911957e-02 -5.699716806411743164e-01
1.019764691591262817e-01 4.523007273674011230e-01 3.521173000335693359e-01
1.056898385286331177e-01 1.593803614377975464e-01 -6.899871230125427246e-01
3.769285604357719421e-02 -1.804632842540740967e-01 9.300047755241394043e-01
-1.573780924081802368e-01 -1.635495722293853760e-01 -2.518884465098381042e-02
-5.355457216501235962e-02 -6.075587272644042969e-01 1.099611539393663406e-02
-1.393530666828155518e-01 2.688884437084197998e-01 -3.466149568557739258e-01
7.096189260482788086e-02 2.530212104320526123e-01 -8.055431246757507324e-01
-1.073931902647018433e-01 3.876733779907226562e-01 -4.967653155326843262e-01
1.498212516307830811e-01 2.230370603501796722e-02 3.253407180309295654e-01
9.607681632041931152e-02 -3.646165430545806885e-01 -5.102852582931518555e-01
-1.094713211059570312e-01 -4.761171638965606689e-01 6.379194557666778564e-02
-1.292253583669662476e-01 3.889518976211547852e-01 -1.097192689776420593e-01
1.063438802957534790e-01 1.866572201251983643e-01 7.034503221511840820e-01
8.577455580234527588e-02 9.516729414463043213e-02 8.421388268470764160e-01
5.836063250899314880e-02 5.512740015983581543e-01 -3.941645622253417969e-01
-1.000256836414337158e-01 4.916304945945739746e-01 -2.557850778102874756e-01
-3.862792998552322388e-02 4.957488477230072021e-01 5.945498347282409668e-01
1.551457196474075317e-01 1.034695878624916077e-01 -4.615567252039909363e-02
-1.138985157012939453e-01 2.337990105152130127e-01 5.867897272109985352e-01
-1.190876364707946777e-01 4.262323975563049316e-01 -2.121667265892028809e-01
6.167543306946754456e-02 -3.875336945056915283e-01 6.859748959541320801e-01
-1.257662326097488403e-01 2.835502028465270996e-01 -5.033156275749206543e-01
-1.055409014225006104e-01 -2.398092001676559448e-01 6.405879855155944824e-01
-1.589242517948150635e-01 1.265342980623245239e-01 -8.589210361242294312e-02
-1.565524190664291382e-01 8.402583189308643341e-03 -3.165651857852935791e-01
1.407452076673507690e-01 -1.450069099664688110e-01 -3.362472057342529297e-01
1.228405684232711792e-01 -3.529864251613616943e-01 2.526338398456573486e-01
-8.248622715473175049e-02 4.089224040508270264e-01 -6.286005377769470215e-01
-1.467401981353759766e-01 -7.355639338493347168e-02 3.764767050743103027e-01
1.503285020589828491e-01 6.659067422151565552e-02 -2.504578232765197754e-01
5.781101435422897339e-02 -4.006524980068206787e-01 -6.691074967384338379e-01
-1.041972935199737549e-01 3.019031882286071777e-01 -6.547905802726745605e-01
-6.396548449993133545e-02 -3.914534151554107666e-01 -7.228810191154479980e-01
1.210304796695709229e-01 2.523847818374633789e-01 -5.009613037109375000e-01
1.405587196350097656e-01 -2.577474117279052734e-01 1.332347393035888672e-01
-6.204979866743087769e-02 3.687359690666198730e-01 -7.672712206840515137e-01
1.947049237787723541e-02 6.469206213951110840e-01 5.557788908481597900e-02
-1.166834682226181030e-01 -7.089869678020477295e-02 -7.360010147094726562e-01
1.476701050996780396e-01 -1.639326363801956177e-01 -1.543847024440765381e-01
-1.465334147214889526e-01 2.455083876848220825e-01 1.551291048526763916e-01
-4.844412952661514282e-02 -2.094853520393371582e-01 8.869290947914123535e-01
1.519910991191864014e-01 1.777400076389312744e-01 -6.051557138562202454e-04
-1.563846766948699951e-01 1.052984967827796936e-01 1.656094491481781006e-01
-1.004266291856765747e-01 -4.379737675189971924e-01 -4.421244561672210693e-01
-1.073322445154190063e-01 -1.834391653537750244e-01 6.715800762176513672e-01
-1.558075994253158569e-01 -1.830379366874694824e-01 1.290881726890802383e-02
-7.719931006431579590e-02 4.087064564228057861e-01 5.970682501792907715e-01
3.331229090690612793e-03 4.860727488994598389e-01 6.673122644424438477e-01
1.492532938718795776e-01 7.973533123731613159e-03 3.361564278602600098e-01
2.911151945590972900e-02 -5.480026006698608398e-01 -4.661102592945098877e-01
1.080909520387649536e-01 2.340374588966369629e-01 6.583797931671142578e-01
-9.263996779918670654e-02 4.614416658878326416e-01 -4.521882534027099609e-01
-1.114778071641921997e-01 2.111479081213474274e-02 -7.746554613113403320e-01
3.557068482041358948e-02 -4.927289187908172607e-01 -5.830982923507690430e-01
-1.206092536449432373e-01 -2.810757160186767578e-01 -5.595484375953674316e-01
-1.604633629322052002e-01 5.571383982896804810e-02 7.464297115802764893e-02
-1.050767302513122559e-01 -2.528143525123596191e-01 -7.006749510765075684e-01
1.502697765827178955e-01 -1.624098569154739380e-01 7.884903997182846069e-02
1.249818503856658936e-01 -3.400287628173828125e-01 2.555111646652221680e-01
-9.410712122917175293e-02 -5.180294513702392578e-01 -1.943618655204772949e-01
-1.589545160531997681e-01 1.027883663773536682e-01 7.366908341646194458e-02
7.920378446578979492e-02 5.603060126304626465e-01 -1.307803690433502197e-01
1.056711524724960327e-01 -4.469626843929290771e-01 -1.408391296863555908e-01
9.912548959255218506e-02 -3.537706136703491211e-01 5.361344218254089355e-01
-1.325886547565460205e-01 -3.775545656681060791e-01 -4.349873960018157959e-02
1.385481506586074829e-01 2.434860467910766602e-01 -2.875910699367523193e-01
1.337124556303024292e-01 -3.145810961723327637e-02 -4.951436817646026611e-01
-1.180755794048309326e-01 -4.144123494625091553e-01 -2.999885976314544678e-01
6.842081248760223389e-02 5.587033033370971680e-01 3.022714555263519287e-01
-8.604477345943450928e-02 -3.309858143329620361e-01 6.568577885627746582e-01
-1.589498668909072876e-01 8.218225836753845215e-02 -2.054328322410583496e-01
-1.585619151592254639e-01 -1.256122440099716187e-01 6.140618026256561279e-02
-1.206677407026290894e-01 -4.362094700336456299e-01 -4.167828708887100220e-02
1.434060186147689819e-01 2.782882153987884521e-01 4.705853760242462158e-02
-6.025065854191780090e-02 5.209916234016418457e-01 4.546429812908172607e-01
-1.597341299057006836e-01 -8.018198609352111816e-02 -1.866701990365982056e-01
1.248545497655868530e-01 3.648561835289001465e-01 2.900759577751159668e-01
-1.114609092473983765e-01 -4.381870031356811523e-01 -3.144050836563110352e-01
9.034000337123870850e-02 5.232756137847900391e-01 -1.869560927152633667e-01
8.960741758346557617e-02 1.240110248327255249e-01 8.179557323455810547e-01
-5.492728948593139648e-02 -5.402100682258605957e-01 -4.529739022254943848e-01
-1.424849927425384521e-01 1.157228574156761169e-01 -4.952024221420288086e-01
-3.315007314085960388e-02 6.253578662872314453e-01 -2.196444571018218994e-01
-1.404573917388916016e-01 -2.472180575132369995e-01 -3.812508881092071533e-01
-1.599172502756118774e-01 1.035083532333374023e-01 -9.743296355009078979e-02
-1.099246740341186523e-01 -8.398320525884628296e-02 -7.724242806434631348e-01
-2.317682467401027679e-02 5.489003658294677734e-01 -5.457282662391662598e-01
-1.079863607883453369e-01 1.647840589284896851e-01 -7.494065761566162109e-01
-1.552566587924957275e-01 -1.205836236476898193e-01 1.885266005992889404e-01
-1.101455688476562500e-01 4.643253087997436523e-01 1.307649016380310059e-01
-3.054296784102916718e-02 5.725433826446533203e-01 -4.657335877418518066e-01
-6.811331212520599365e-02 1.039003804326057434e-01 8.809825181961059570e-01
-9.397703409194946289e-02 -5.000258088111877441e-01 2.380064576864242554e-01
1.551726013422012329e-01 8.974626660346984863e-02 1.304438710212707520e-01
-1.546626351773738861e-02 -4.774464070796966553e-01 -6.745930314064025879e-01
1.341804563999176025e-01 -2.623435258865356445e-01 -2.541995346546173096e-01
1.405101716518402100e-01 8.984091132879257202e-02 -4.069451093673706055e-01
-1.498139351606369019e-01 3.546344488859176636e-02 3.415022790431976318e-01
-8.870159089565277100e-02 4.022000133991241455e-01 5.420435667037963867e-01
5.582340434193611145e-02 -2.128472328186035156e-01 8.755704164505004883e-01
-8.343657851219177246e-02 9.532746672630310059e-02 8.285560011863708496e-01
-9.698374569416046143e-02 4.600677192211151123e-01 3.485246002674102783e-01
-4.460499063134193420e-02 6.131898760795593262e-01 -2.245245873928070068e-01
-1.504562050104141235e-01 1.750827878713607788e-01 -3.071041107177734375e-01
-1.446286886930465698e-01 -3.502384200692176819e-02 4.151644706726074219e-01
5.508378893136978149e-02 5.917894244194030762e-01 -2.466898709535598755e-01
-1.013323664665222168e-01 3.977118134498596191e-01 4.580286741256713867e-01
1.252193599939346313e-01 -2.291877567768096924e-01 -4.428986608982086182e-01
1.205137073993682861e-01 -3.207139968872070312e-01 -3.435969054698944092e-01
1.382927894592285156e-01 -4.835038911551237106e-03 4.965820312500000000e-01
1.324611008167266846e-01 1.459082663059234619e-01 -4.755806624889373779e-01
6.980744004249572754e-02 4.576404094696044922e-01 -5.631252527236938477e-01
-1.547119170427322388e-01 1.533050537109375000e-01 1.387796103954315186e-01
-3.624056279659271240e-02 4.036534726619720459e-01 -7.837139964103698730e-01
-6.930088996887207031e-02 4.247196614742279053e-01 -6.635617017745971680e-01
-1.062895208597183228e-01 -4.738734364509582520e-01 -2.371612787246704102e-01
6.180774047970771790e-02 5.077083110809326172e-01 -4.972989261150360107e-01
-3.991986438632011414e-02 3.731773495674133301e-01 -8.142472505569458008e-01
1.112868189811706543e-01 -3.380096554756164551e-01 -4.198027849197387695e-01
1.408309787511825562e-01 1.556639373302459717e-01 -3.614470660686492920e-01
-1.409423947334289551e-01 -2.903990149497985840e-01 1.868400573730468750e-01
-9.786614775657653809e-02 -5.066420435905456543e-01 -1.991642117500305176e-01
1.369364112615585327e-01 1.023527681827545166e-01 4.951806664466857910e-01
1.124406009912490845e-01 4.382227957248687744e-01 -2.131840288639068604e-01
5.255442485213279724e-02 6.106224656105041504e-01 1.397314518690109253e-01
-7.848450541496276855e-02 -5.499083399772644043e-01 -2.379783987998962402e-01
9.900730848312377930e-02 2.490397691726684570e-01 -6.723076701164245605e-01
-7.164625823497772217e-02 -5.517259240150451660e-01 2.529443502426147461e-01
1.352820545434951782e-01 7.295361254364252090e-03 -4.836056232452392578e-01
6.842298805713653564e-02 -5.111651420593261719e-01 3.881364762783050537e-01
-1.014822423458099365e-01 2.902360558509826660e-01 6.155245900154113770e-01
-1.070593744516372681e-01 -2.151642143726348877e-01 -7.210949063301086426e-01
1.471135616302490234e-01 2.404867559671401978e-01 6.451520323753356934e-02
5.387362837791442871e-02 4.642073214054107666e-01 6.274949312210083008e-01
1.343738436698913574e-01 3.104704916477203369e-01 2.644150257110595703e-01
-1.323011815547943115e-01 -1.742713302373886108e-01 4.834000766277313232e-01
-1.343433111906051636e-01 3.563581407070159912e-01 -1.474081426858901978e-01
-7.117488980293273926e-02 -4.758819937705993652e-01 4.956305027008056641e-01
-1.585604846477508545e-01 1.299947798252105713e-01 -1.092383041977882385e-01
-1.020257920026779175e-01 5.050372481346130371e-01 -4.411062970757484436e-02
2.754659391939640045e-03 2.975175380706787109e-01 -9.105767607688903809e-01
-1.203699856996536255e-01 1.423677951097488403e-01 -6.830528378486633301e-01
4.459339007735252380e-02 -4.348334670066833496e-01 -6.627400517463684082e-01
1.359382271766662598e-01 -1.080956012010574341e-01 4.840135872364044189e-01
-1.039975881576538086e-01 -2.741158008575439453e-01 -6.861270070075988770e-01
-1.159524545073509216e-02 -1.304585635662078857e-01 -9.965306520462036133e-01
3.663280606269836426e-02 -4.430651962757110596e-01 6.739070415496826172e-01
-4.738711193203926086e-02 -8.718781173229217529e-03 9.480866789817810059e-01
-8.733077347278594971e-02 -2.169191688299179077e-01 7.549360990524291992e-01
1.264849156141281128e-01 -2.224811911582946777e-01 4.812253415584564209e-01
-1.545100212097167969e-01 1.446103453636169434e-01 1.615764349699020386e-01
7.797566056251525879e-02 -5.387622714042663574e-01 1.180658265948295593e-01
8.878260850906372070e-02 6.942365318536758423e-02 8.350569605827331543e-01
-7.078510522842407227e-02 5.717753171920776367e-01 -2.273526638746261597e-01
7.395939528942108154e-02 -2.033722847700119019e-01 -8.086637854576110840e-01
-8.338695764541625977e-02 -5.541956424713134766e-01 2.727483585476875305e-02
1.048277467489242554e-01 4.375841021537780762e-01 -3.324229121208190918e-01
-1.148120015859603882e-01 8.305674791336059570e-02 -7.440481781959533691e-01
1.422128081321716309e-01 2.730492353439331055e-01 -1.194264218211174011e-01
-6.713591516017913818e-02 2.244476601481437683e-02 -9.487737417221069336e-01
1.173441410064697266e-01 4.393544495105743408e-01 9.241022169589996338e-02
8.720758557319641113e-02 -3.608340919017791748e-01 -5.796972513198852539e-01
-4.298231378197669983e-02 5.980079174041748047e-01 -3.237007558345794678e-01
-8.408004045486450195e-02 -3.659441173076629639e-01 6.221382021903991699e-01
1.482180207967758179e-01 1.710809618234634399e-01 2.540515959262847900e-01
-1.429895162582397461e-01 9.277463704347610474e-02 4.135796129703521729e-01
8.969968557357788086e-02 -3.179408907890319824e-01 6.511526107788085938e-01
1.253315061330795288e-01 -1.022173017263412476e-01 5.947741270065307617e-01
-7.016874849796295166e-02 -1.272713094949722290e-01 -9.182595014572143555e-01
1.446756720542907715e-01 -1.256056129932403564e-01 3.417753875255584717e-01
-1.464263652451336384e-03 -6.321227550506591797e-01 -1.383494436740875244e-01
1.561570316553115845e-01 -1.730153709650039673e-02 -5.251428112387657166e-02
-1.440685987472534180e-01 -2.930950522422790527e-01 -1.640763878822326660e-01
-1.378772407770156860e-01 -2.589999437332153320e-01 -3.999642133712768555e-01
-1.306437104940414429e-01 1.987627744674682617e-01 4.739233255386352539e-01
-1.308073848485946655e-01 3.813245892524719238e-01 1.066523510962724686e-02
-1.396211385726928711e-01 -9.217683970928192139e-02 -5.432549118995666504e-01
9.746924042701721191e-02 5.157403349876403809e-01 -5.263190343976020813e-02
1.083114594221115112e-01 -4.285709261894226074e-01 -1.876185238361358643e-01
1.514947265386581421e-01 7.043027877807617188e-02 2.764799594879150391e-01
6.175497546792030334e-02 1.999821513891220093e-01 8.810666203498840332e-01
1.543528586626052856e-01 2.961587160825729370e-02 2.087159603834152222e-01
-1.339660286903381348e-01 2.572127282619476318e-01 -4.488208889961242676e-01
-1.410616785287857056e-01 -2.390689849853515625e-01 2.993173301219940186e-01
-6.551547348499298096e-02 4.880425631999969482e-01 5.073115229606628418e-01
1.542993634939193726e-01 1.362260431051254272e-01 3.822679072618484497e-02
-4.939877241849899292e-02 3.961551785469055176e-01 -7.672912478446960449e-01
-1.315494626760482788e-01 -3.058967590332031250e-01 -4.009050726890563965e-01
1.563900709152221680e-01 6.585866957902908325e-02 7.123508304357528687e-02
-1.258127838373184204e-01 -2.586873769760131836e-01 4.621836245059967041e-01
-1.404896527528762817e-01 8.553571254014968872e-02 4.470328390598297119e-01
-1.122436970472335815e-01 -3.501706719398498535e-01 -5.264211297035217285e-01
9.590904414653778076e-02 3.360977470874786377e-01 -6.012099981307983398e-01
-1.526261866092681885e-01 -1.588981747627258301e-01 -2.945162057876586914e-01
5.040691420435905457e-02 5.458333492279052734e-01 -4.535148441791534424e-01
8.497926592826843262e-02 1.799993366003036499e-01 -7.915435433387756348e-01
-1.569961309432983398e-01 2.373466268181800842e-02 2.080748379230499268e-01
1.242258250713348389e-01 -3.394740819931030273e-01 -2.298398613929748535e-01
-1.081774830818176270e-01 -4.517697915434837341e-02 7.189911603927612305e-01
-1.014475822448730469e-01 -1.387617737054824829e-01 -7.966938614845275879e-01
-7.665283977985382080e-02 -4.540183246135711670e-01 -5.669927597045898438e-01
-8.777253329753875732e-02 1.162034273147583008e-01 -8.659324645996093750e-01
1.213478296995162964e-01 2.979606688022613525e-01 -4.389821290969848633e-01
-9.718975424766540527e-02 -5.114115476608276367e-01 -1.768866628408432007e-01
-9.300126135349273682e-02 3.052995204925537109e-01 -7.150942087173461914e-01
1.096539348363876343e-01 -3.473593294620513916e-01 4.550132155418395996e-01
-1.073704957962036133e-01 -1.664960980415344238e-01 -7.517738938331604004e-01
7.049950957298278809e-02 -3.733049929141998291e-01 -6.539344191551208496e-01
-1.169439256191253662e-01 2.322996854782104492e-01 5.648732781410217285e-01
4.569484293460845947e-02 -4.849347770214080811e-01 -5.650892257690429688e-01
-9.706686437129974365e-02 5.413225293159484863e-02 -8.429781794548034668e-01
-1.162794381380081177e-01 -4.363228380680084229e-01 1.624187082052230835e-01
1.353975087404251099e-01 -2.236737608909606934e-01 3.609502017498016357e-01
-1.515149623155593872e-01 2.198380082845687866e-01 -1.527955830097198486e-01
-2.538521774113178253e-02 -4.174945876002311707e-02 -1.011802792549133301e+00
-9.585961699485778809e-02 -5.028578042984008789e-01 1.963494271039962769e-01
-9.625230729579925537e-02 -2.025869190692901611e-01 7.214905023574829102e-01
1.141344010829925537e-01 -3.892979621887207031e-01 -2.453423589468002319e-01
1.275542676448822021e-01 1.371911764144897461e-01 -5.311120748519897461e-01
1.027909815311431885e-01 -1.554693579673767090e-01 -6.926025748252868652e-01
7.442541420459747314e-02 4.480524361133575439e-01 5.725184082984924316e-01
1.189177036285400391e-01 5.837101116776466370e-02 -6.309731006622314453e-01
8.669905364513397217e-02 -1.449517607688903809e-01 8.104946017265319824e-01
2.345172688364982605e-02 5.966539978981018066e-01 3.795977234840393066e-01
-1.124609559774398804e-01 -4.510534107685089111e-01 1.671837419271469116e-01
-1.243703961372375488e-01 -2.516037821769714355e-01 -5.629689097404479980e-01
-1.221895813941955566e-01 -4.274234473705291748e-01 -1.039945408701896667e-01
1.535060107707977295e-01 2.305448241531848907e-02 -1.799917072057723999e-01
5.290509201586246490e-03 -6.237122416496276855e-01 -2.041437476873397827e-01
-1.387931853532791138e-01 1.323728263378143311e-02 4.840610325336456299e-01
-1.493764966726303101e-01 1.416715085506439209e-01 2.815015017986297607e-01
-1.527975201606750488e-01 -1.202287375926971436e-01 2.457095533609390259e-01
-1.105841398239135742e-01 -1.852970123291015625e-01 -7.216930985450744629e-01
3.901664540171623230e-02 -3.279520571231842041e-01 -8.167113661766052246e-01
-1.580327600240707397e-01 -4.084309935569763184e-02 1.785394847393035889e-01
1.455836296081542969e-01 1.096580177545547485e-01 3.719708025455474854e-01
-1.369432657957077026e-01 2.705800235271453857e-01 2.969783544540405273e-01
-2.743122726678848267e-02 6.401884555816650391e-01 -1.111143827438354492e-01
-1.177780032157897949e-01 -3.781438469886779785e-01 3.394024372100830078e-01
1.494870036840438843e-01 5.809671059250831604e-02 -2.715480029582977295e-01
7.134090363979339600e-02 5.071603655815124512e-01 -4.427423775196075439e-01
-1.584081500768661499e-01 1.096303090453147888e-01 -1.823558360338211060e-01
-7.219500839710235596e-02 -5.621573328971862793e-01 -2.405177503824234009e-01
1.118482500314712524e-01 -4.276553690433502197e-01 -8.976961672306060791e-02
-2.648018300533294678e-02 -2.298471927642822266e-01 9.123868942260742188e-01
9.506119787693023682e-02 -4.627059996128082275e-01 2.944013178348541260e-01
4.694129154086112976e-02 -4.980240166187286377e-01 -5.308746099472045898e-01
-1.100516468286514282e-01 1.240459270775318146e-03 -7.833458185195922852e-01
-1.519789993762969971e-01 1.407039761543273926e-01 2.308830469846725464e-01
1.535210907459259033e-01 1.226871237158775330e-01 -1.027869433164596558e-01
-1.161002516746520996e-01 -2.380239516496658325e-01 -6.433961987495422363e-01
-1.264215409755706787e-01 -1.143601462244987488e-01 -6.532225608825683594e-01
5.395548790693283081e-02 -2.823050618171691895e-01 8.283571004867553711e-01
1.487065404653549194e-01 2.165000587701797485e-01 -5.708504468202590942e-02
-1.294983327388763428e-01 -1.053074002265930176e-01 5.511454939842224121e-01
-6.535913050174713135e-02 2.688202857971191406e-01 8.041418194770812988e-01
-1.439713388681411743e-01 -8.933910727500915527e-02 -4.948685467243194580e-01
1.065731942653656006e-01 5.402006953954696655e-02 -7.167918682098388672e-01
-2.297720499336719513e-02 2.281761541962623596e-02 -1.015840172767639160e+00
1.410340219736099243e-01 6.839227676391601562e-02 4.573124945163726807e-01
1.565385311841964722e-01 -1.373359560966491699e-02 7.790457457304000854e-02
-1.443713605403900146e-01 -2.765098810195922852e-01 1.402199119329452515e-01
-1.184432804584503174e-01 -4.429761767387390137e-01 3.961144015192985535e-02
-9.444743394851684570e-02 5.207283496856689453e-01 -1.749094277620315552e-01
-1.594072431325912476e-01 -1.164361611008644104e-01 -1.293522864580154419e-01
4.025652259588241577e-02 -6.030922532081604004e-01 1.517402380704879761e-01
5.586125701665878296e-02 -1.165008619427680969e-01 9.218995571136474609e-01
-7.004088163375854492e-02 -9.260556101799011230e-02 8.769478797912597656e-01
-5.727374553680419922e-02 4.861705303192138672e-01 5.496044754981994629e-01
-1.504039764404296875e-01 2.243009805679321289e-01 9.348625689744949341e-02
-4.467645287513732910e-02 2.143872082233428955e-01 -9.374108910560607910e-01
-1.304697096347808838e-01 -6.828811019659042358e-02 -6.374189257621765137e-01
9.327207691967487335e-03 -5.973863601684570312e-01 3.327409923076629639e-01
1.538148522377014160e-01 -2.322863228619098663e-02 2.155608832836151123e-01
3.237581998109817505e-02 -1.412384510040283203e-01 -9.568837881088256836e-01
-5.721709877252578735e-02 1.297123730182647705e-01 -9.514566063880920410e-01
4.545433446764945984e-02 4.133877754211425781e-01 7.292025685310363770e-01
-9.553888440132141113e-02 -8.729343861341476440e-02 7.772875428199768066e-01
-6.869800388813018799e-02 -3.379500806331634521e-01 7.237368822097778320e-01
-1.621031463146209717e-01 1.937377080321311951e-02 -9.199283272027969360e-02
1.310655102133750916e-02 2.997645139694213867e-01 -9.019992351531982422e-01
6.840449571609497070e-02 4.071538746356964111e-01 -6.539749503135681152e-01
1.317594647407531738e-01 3.652244508266448975e-01 -2.451297361403703690e-03
-1.223044246435165405e-01 -3.006908893585205078e-01 4.391394257545471191e-01
-2.895255945622920990e-02 4.854879081249237061e-01 6.365144252777099609e-01
-1.495297402143478394e-01 1.178082972764968872e-01 3.019168078899383545e-01
-7.710583508014678955e-02 4.356311261653900146e-01 -6.095288991928100586e-01
-1.302349120378494263e-01 -2.495989575982093811e-02 5.652396082878112793e-01
4.480269551277160645e-02 -5.850264430046081543e-01 -2.390539795160293579e-01
-9.519336745142936707e-03 5.053411722183227539e-01 6.270630359649658203e-01
-2.265506424009799957e-02 3.909649550914764404e-01 -8.157558441162109375e-01
9.028457105159759521e-02 -2.526060342788696289e-01 -6.926576495170593262e-01
1.004779338836669922e-01 -1.799723878502845764e-02 -7.531560063362121582e-01
1.382489055395126343e-01 3.209742009639739990e-01 4.763940349221229553e-03
-1.152821779251098633e-01 -3.983547687530517578e-01 -3.914577662944793701e-01
-1.157578676939010620e-01 3.518244624137878418e-01 -4.889330565929412842e-01
1.268381327390670776e-01 -8.450264483690261841e-02 5.898725390434265137e-01
2.167568542063236237e-03 -5.741162300109863281e-01 4.268230497837066650e-01
-1.520857214927673340e-01 1.901900619268417358e-01 -2.331380993127822876e-01
-4.896785318851470947e-02 -1.713295876979827881e-01 9.055007696151733398e-01
1.046836972236633301e-01 2.275604754686355591e-01 6.852201819419860840e-01
-1.280966997146606445e-01 3.497375547885894775e-01 2.545145452022552490e-01
-1.423016935586929321e-01 1.336648315191268921e-01 -4.849043786525726318e-01
-8.892949670553207397e-03 4.176547825336456299e-01 -7.899122834205627441e-01
6.196462735533714294e-02 -5.654993057250976562e-01 -1.771505475044250488e-01
1.487106382846832275e-01 2.235354185104370117e-01 3.278643637895584106e-02
1.237388700246810913e-01 1.272466033697128296e-01 6.124083995819091797e-01
3.065443783998489380e-02 4.087677299976348877e-01 7.624816298484802246e-01
2.313194237649440765e-02 2.523477375507354736e-01 -9.249348640441894531e-01
-1.000757515430450439e-01 2.301735728979110718e-01 6.802406311035156250e-01
6.166509166359901428e-02 -3.314213454723358154e-01 -7.443851232528686523e-01
6.797739863395690918e-02 2.047527432441711426e-01 8.608315587043762207e-01
-1.280093491077423096e-01 2.610946893692016602e-01 -5.120154619216918945e-01
2.851329557597637177e-02 -1.960829794406890869e-01 -9.378947615623474121e-01
6.555560231208801270e-02 1.420125663280487061e-01 8.962814211845397949e-01
-6.927925348281860352e-02 5.725182890892028809e-01 1.876364201307296753e-01
-6.956814229488372803e-02 -4.571993350982666016e-01 -5.937104225158691406e-01
-1.027806103229522705e-01 3.755690753459930420e-01 -5.577148199081420898e-01
1.453056484460830688e-01 -3.302762284874916077e-02 3.957951068878173828e-01
-1.383282393217086792e-01 -3.403822779655456543e-01 -1.110009476542472839e-01
9.158527851104736328e-02 8.008527755737304688e-02 -7.951619625091552734e-01
1.537718921899795532e-01 -6.746867299079895020e-02 1.751926392316818237e-01
-1.475864648818969727e-01 -2.414210587739944458e-01 -2.480546981096267700e-01
1.281125247478485107e-01 -9.096026420593261719e-02 5.753524899482727051e-01
-9.902764856815338135e-02 -1.765946596860885620e-01 -7.891154885292053223e-01
1.999963819980621338e-02 -6.168037056922912598e-01 -1.999490559101104736e-01
8.707188069820404053e-02 6.497342139482498169e-02 -8.190549015998840332e-01
1.350043714046478271e-01 -2.128129750490188599e-01 3.851094245910644531e-01
-1.349495351314544678e-01 -3.224580585956573486e-01 -3.048668503761291504e-01
-3.209941321983933449e-03 6.476383209228515625e-01 1.141875833272933960e-01
-1.284454762935638428e-01 -2.053466290235519409e-01 4.943590760231018066e-01
6.372697651386260986e-02 1.397869884967803955e-01 -8.900298476219177246e-01
-1.249703019857406616e-01 1.790428534150123596e-02 6.085929274559020996e-01
1.342770159244537354e-01 3.449482917785644531e-01 1.069772541522979736e-01
1.172324717044830322e-01 4.044158756732940674e-02 -6.458792090415954590e-01
-1.064192503690719604e-01 4.723511338233947754e-01 1.683954894542694092e-01
2.652258612215518951e-02 -5.565024614334106445e-01 4.453025162220001221e-01
1.384318023920059204e-01 1.646041274070739746e-01 -3.883078098297119141e-01
-6.521564722061157227e-02 -2.800101935863494873e-01 7.920933365821838379e-01
-7.657131552696228027e-02 -2.434949129819869995e-01 7.808944582939147949e-01
-6.875236332416534424e-02 1.696513295173645020e-01 8.546246290206909180e-01
4.154802765697240829e-03 4.250476658344268799e-01 7.599298357963562012e-01
-1.226145029067993164e-01 -4.080469310283660889e-01 1.611293256282806396e-01
1.426522731781005859e-01 -2.140631377696990967e-01 -1.780767291784286499e-01
4.628915712237358093e-02 4.209417104721069336e-01 7.168346643447875977e-01
-5.161500722169876099e-02 -2.677596807479858398e-01 8.405438661575317383e-01
1.530028134584426880e-01 7.731398940086364746e-02 2.315459698438644409e-01
2.746341004967689514e-02 -5.876798629760742188e-01 3.280327320098876953e-01
1.352181732654571533e-01 -2.613428533077239990e-01 -2.350907176733016968e-01
1.211002469062805176e-01 -3.846594393253326416e-01 1.269120723009109497e-01
1.157623529434204102e-01 -4.095019698143005371e-01 -9.582746773958206177e-02
1.396375745534896851e-01 -2.689279019832611084e-01 -5.690606310963630676e-02
1.293684691190719604e-01 1.995480805635452271e-01 -4.685152769088745117e-01
1.191831678152084351e-01 -3.815364539623260498e-01 -1.702346056699752808e-01
-5.963986366987228394e-02 4.725945591926574707e-01 5.667986869812011719e-01
6.317701935768127441e-02 2.880949378013610840e-01 -8.065498471260070801e-01
-7.322847843170166016e-02 -4.951209723949432373e-01 4.373053610324859619e-01
-1.115986555814743042e-01 -4.707655906677246094e-01 2.916020527482032776e-02
-3.787300363183021545e-02 6.344303488731384277e-02 -9.990082383155822754e-01
1.528554558753967285e-01 -3.161622583866119385e-02 2.405245453119277954e-01
6.374390423297882080e-02 -5.738553404808044434e-01 2.711294963955879211e-02
1.194009464234113693e-02 -3.690837621688842773e-01 -8.186498284339904785e-01
-1.010322570800781250e-01 2.020071148872375488e-01 6.954582929611206055e-01
-3.419355303049087524e-02 6.167125105857849121e-01 2.334465831518173218e-01
1.284753084182739258e-01 3.754618465900421143e-01 -1.104498952627182007e-01
3.887366130948066711e-02 -3.545154929161071777e-01 -7.885172963142395020e-01
1.218512058258056641e-01 1.288313269615173340e-01 -5.864703655242919922e-01
1.024993509054183960e-01 -3.168763518333435059e-01 5.694837570190429688e-01
-4.288540780544281006e-02 4.060699641704559326e-01 7.275063395500183105e-01
1.094081997871398926e-01 4.107195511460304260e-02 7.349548935890197754e-01
-1.619860380887985229e-01 1.513073220849037170e-02 -1.105408668518066406e-01
-5.031850188970565796e-02 2.024589329957962036e-01 8.900934457778930664e-01
1.483760327100753784e-01 -4.704131558537483215e-02 3.364262878894805908e-01
9.798555076122283936e-02 4.972590804100036621e-01 -1.979408264160156250e-01
-1.388215869665145874e-01 -8.314338326454162598e-02 -5.553757548332214355e-01
1.222431212663650513e-01 4.153633117675781250e-01 1.000351160764694214e-01
-6.235402822494506836e-02 -2.558981627225875854e-02 -9.597142338752746582e-01
1.068242788314819336e-01 2.978563904762268066e-01 6.033540368080139160e-01
1.541513204574584961e-01 1.288571506738662720e-01 -4.951768741011619568e-02
1.125207990407943726e-01 -3.854580819606781006e-01 3.238091170787811279e-01
7.635584473609924316e-02 -3.657295703887939453e-01 6.557574868202209473e-01
-8.650591969490051270e-02 -1.720146238803863525e-01 -8.454195857048034668e-01
1.318133175373077393e-01 1.170384436845779419e-01 -4.982628524303436279e-01
5.087250843644142151e-02 -4.342733025550842285e-01 -6.420293450355529785e-01
8.548858761787414551e-02 -4.754719436168670654e-01 3.601315319538116455e-01
1.426594257354736328e-01 2.072313427925109863e-01 -2.699186205863952637e-01
-7.587997615337371826e-02 1.809921115636825562e-01 8.241632580757141113e-01
1.567340195178985596e-01 9.727451018989086151e-03 7.792673259973526001e-02
1.251688599586486816e-01 -2.855378389358520508e-01 3.969702720642089844e-01
-5.190053582191467285e-02 6.102902293205261230e-01 -1.703603565692901611e-01
1.027594059705734253e-01 -3.059282898902893066e-01 5.831938982009887695e-01
1.547850072383880615e-01 1.199798658490180969e-01 7.978624105453491211e-02
7.101961970329284668e-02 -2.721778452396392822e-01 -7.674424648284912109e-01
-8.061689138412475586e-02 -2.820809483528137207e-01 7.327567934989929199e-01
-1.586691141128540039e-01 -9.180150926113128662e-02 1.190613284707069397e-01
-6.485088914632797241e-02 5.346088409423828125e-01 3.887636363506317139e-01
-4.813259933143854141e-03 5.951079726219177246e-01 -4.277280271053314209e-01
-1.547230184078216553e-01 2.389569766819477081e-02 -3.524376749992370605e-01
8.091609179973602295e-02 5.260152220726013184e-01 3.215377926826477051e-01
-1.041195541620254517e-01 -4.884185791015625000e-01 -1.896388530731201172e-01
-5.800554156303405762e-02 6.083982586860656738e-01 -4.445968568325042725e-02
-9.734439849853515625e-02 7.147295773029327393e-02 -8.384944200515747070e-01
1.292095035314559937e-01 3.133975863456726074e-01 -3.085788786411285400e-01
-6.615370512008666992e-02 -4.514748752117156982e-01 -6.187005043029785156e-01
2.081335522234439850e-02 5.056006833910942078e-03 -1.002581715583801270e+00
1.495717167854309082e-01 2.129151374101638794e-01 2.651411294937133789e-02
-1.551146358251571655e-01 1.542772650718688965e-01 1.227502897381782532e-01
9.354035556316375732e-02 -3.086117804050445557e-01 -6.121997237205505371e-01
2.352580800652503967e-02 -2.967871725559234619e-02 -9.972726106643676758e-01
1.329751312732696533e-01 -2.928583621978759766e-01 -1.918954849243164062e-01
6.263068318367004395e-02 -4.395636320114135742e-01 5.967762470245361328e-01
-8.945980668067932129e-02 -7.259318232536315918e-02 8.086121082305908203e-01
1.097537875175476074e-01 -3.994804322719573975e-01 3.191151916980743408e-01
-1.341261565685272217e-01 2.490870952606201172e-01 3.740965723991394043e-01
8.043813705444335938e-02 -4.300888776779174805e-01 5.211713314056396484e-01
9.512633085250854492e-02 6.549657881259918213e-02 -7.799184322357177734e-01
-1.435824036598205566e-01 -1.563818603754043579e-01 3.660711944103240967e-01
8.295638859272003174e-02 -3.823839426040649414e-01 5.955371856689453125e-01
9.558947384357452393e-02 4.837509691715240479e-01 3.211022317409515381e-01
-3.826816007494926453e-02 5.722404122352600098e-01 -4.442627429962158203e-01
1.453833878040313721e-01 -1.508648842573165894e-01 2.942824363708496094e-01
-4.298208653926849365e-02 -4.064246118068695068e-01 -7.543298602104187012e-01
-1.149852871894836426e-01 -1.115842722356319427e-02 -7.547861933708190918e-01
6.261043250560760498e-02 -3.427064418792724609e-01 -7.277445793151855469e-01
-1.327227056026458740e-01 2.343467622995376587e-01 4.117114245891571045e-01
1.125391274690628052e-01 -2.370212972164154053e-01 -5.564504861831665039e-01
1.009251326322555542e-01 -2.871066629886627197e-01 -5.885742902755737305e-01
-1.381494849920272827e-01 1.333388835191726685e-01 -5.334025025367736816e-01
-9.547697007656097412e-02 -3.397794663906097412e-01 5.938374400138854980e-01
9.021508507430553436e-03 -1.519625484943389893e-01 9.681842923164367676e-01
-1.180194020271301270e-01 4.373504519462585449e-01 -1.670529097318649292e-01
-5.342435836791992188e-02 -3.333593010902404785e-01 7.771646976470947266e-01
1.403647810220718384e-01 -9.338615089654922485e-02 4.375048577785491943e-01
4.840316623449325562e-02 -5.117929577827453613e-01 -4.906406998634338379e-01
-1.522157788276672363e-01 -2.295448631048202515e-01 -1.945497840642929077e-02
1.374367028474807739e-01 -1.145224347710609436e-01 4.611347317695617676e-01
1.501616835594177246e-01 -1.469900012016296387e-01 1.583660840988159180e-01
1.283868849277496338e-01 3.687728047370910645e-01 1.942847669124603271e-01
1.046537011861801147e-01 -2.224878519773483276e-01 6.642223596572875977e-01
1.467420756816864014e-01 -2.040670514106750488e-01 -3.825441002845764160e-02
4.518042504787445068e-02 -2.755977213382720947e-01 8.543478846549987793e-01
-1.226487159729003906e-01 -4.262768030166625977e-01 -8.723855018615722656e-02
6.616236269474029541e-02 -3.523357510566711426e-01 -7.015635371208190918e-01
-1.486420929431915283e-01 1.900706291198730469e-01 -3.211644887924194336e-01
1.443577557802200317e-01 1.374405920505523682e-01 -3.204188644886016846e-01
-8.839625120162963867e-02 -3.195625245571136475e-01 -7.185878753662109375e-01
-3.349274769425392151e-02 -9.225282818078994751e-02 -9.959428906440734863e-01
