-3.082337081432342529e-01 -1.985525637865066528e-01 -3.517462313175201416e-01
-5.313949584960937500e-01 -5.289983749389648438e-02 3.337416350841522217e-01
-6.953116655349731445e-01 3.590348958969116211e-01 -6.904635578393936157e-02
-4.436775147914886475e-01 -1.216214746236801147e-01 3.698314726352691650e-01
-2.348655015230178833e-01 -2.284183651208877563e-01 -2.777761816978454590e-01
-4.964477717876434326e-01 4.626926183700561523e-01 3.864512741565704346e-01
-4.355981647968292236e-01 3.217205405235290527e-01 -4.955533146858215332e-01
-6.989778876304626465e-01 3.382799625396728516e-01 4.267623275518417358e-02
-5.093978047370910645e-01 5.771934390068054199e-01 2.069167792797088623e-01
-2.778398990631103516e-01 -2.877344489097595215e-01 -1.666542589664459229e-01
-1.888616532087326050e-01 -2.419884651899337769e-01 -1.880977451801300049e-01
-6.052213907241821289e-01 4.927006959915161133e-01 2.551502883434295654e-01
-6.038863062858581543e-01 1.223066747188568115e-01 -3.508305251598358154e-01
-1.183284521102905273e-01 1.030864268541336060e-01 -2.443263679742813110e-01
-5.230519771575927734e-01 -1.785378009080886841e-01 -4.708597809076309204e-02
-1.309534311294555664e-01 1.941642314195632935e-01 -2.193649262189865112e-01
-4.337420165538787842e-01 5.140623450279235840e-01 -3.275527060031890869e-01
-2.760793566703796387e-01 1.010209172964096069e-01 -4.986214637756347656e-01
-8.251357078552246094e-02 5.840729922056198120e-02 1.306992024183273315e-03
-2.213147580623626709e-01 4.398721456527709961e-01 -1.669223792850971222e-02
-2.539554536342620850e-01 -2.943991422653198242e-01 -1.227917894721031189e-01
-6.747788786888122559e-01 4.248311519622802734e-01 -1.345256268978118896e-01
-1.071843504905700684e-01 -1.191474646329879761e-01 1.278372257947921753e-01
-6.124138832092285156e-01 3.389822244644165039e-01 -3.574096560478210449e-01
-6.380451917648315430e-01 1.061387360095977783e-02 -5.677211284637451172e-02
-9.331396222114562988e-02 1.181346178054809570e-01 7.101520150899887085e-02
-6.254572272300720215e-01 5.243110060691833496e-01 1.508289128541946411e-01
-6.986131668090820312e-01 2.661516666412353516e-01 5.311315134167671204e-02
-4.914435148239135742e-01 -9.314998984336853027e-02 3.481454253196716309e-01
-5.556192994117736816e-01 3.807375729084014893e-01 4.105197787284851074e-01
-6.111283898353576660e-01 4.561001658439636230e-01 -2.854885458946228027e-01
-2.504392266273498535e-01 3.382713198661804199e-01 -3.670060038566589355e-01
-3.875461518764495850e-01 3.363191485404968262e-01 4.767507612705230713e-01
-4.659149050712585449e-01 6.014375090599060059e-01 1.268819272518157959e-01
-1.665464937686920166e-01 9.724329411983489990e-02 3.525997400283813477e-01
-2.083415985107421875e-01 4.186163544654846191e-01 -5.735295638442039490e-02
-3.479559719562530518e-01 -2.143869847059249878e-01 -3.223403096199035645e-01
-5.899097919464111328e-01 5.760751366615295410e-01 -9.047349542379379272e-02
-1.010634899139404297e-01 -1.136892586946487427e-01 9.986567497253417969e-02
-5.523247122764587402e-01 -1.433657556772232056e-01 -2.667003497481346130e-02
-4.749675095081329346e-01 1.691722720861434937e-01 -5.115851163864135742e-01
-8.912473917007446289e-02 4.692613333463668823e-02 -1.273828595876693726e-01
-6.335889697074890137e-01 5.419760346412658691e-01 -1.587896421551704407e-02
-1.867610365152359009e-01 3.639473319053649902e-01 -1.517878472805023193e-01
-3.509397208690643311e-01 5.649307370185852051e-01 -7.697887718677520752e-02
-6.429375410079956055e-01 1.359805911779403687e-01 2.592047750949859619e-01
-2.405356913805007935e-01 3.591654449701309204e-02 -4.676744937896728516e-01
-5.869252681732177734e-01 5.827090144157409668e-01 -6.249550729990005493e-02
-3.582354784011840820e-01 1.451526433229446411e-01 5.213075876235961914e-01
-4.357100129127502441e-01 -2.580723166465759277e-01 2.990241721272468567e-02
-3.629893660545349121e-01 4.466947317123413086e-01 3.723630905151367188e-01
-4.756027460098266602e-01 -1.762671023607254028e-01 -2.492356747388839722e-01
-1.708845049142837524e-01 3.416363000869750977e-01 1.131996959447860718e-01
-1.539956778287887573e-01 3.208608627319335938e-01 4.408229142427444458e-02
-5.090079307556152344e-01 -1.485512405633926392e-01 2.244481593370437622e-01
-3.405577540397644043e-01 2.225385606288909912e-02 -5.122302174568176270e-01
-5.526804924011230469e-01 4.691666364669799805e-01 -3.478246927261352539e-01
-3.063359856605529785e-01 4.153535366058349609e-01 3.512082099914550781e-01
-4.016082286834716797e-01 7.523646205663681030e-02 -5.241301059722900391e-01
-3.159462213516235352e-01 -1.948072016239166260e-02 4.796733856201171875e-01
-1.247618794441223145e-01 -1.235845834016799927e-01 -2.152183949947357178e-01
-5.935624241828918457e-01 3.778343200683593750e-01 -3.696188032627105713e-01
-1.100725829601287842e-01 1.226022541522979736e-01 1.797900199890136719e-01
-5.410472154617309570e-01 4.489445686340332031e-01 -3.763723075389862061e-01
-2.776035666465759277e-01 -3.059098124504089355e-01 -7.124173641204833984e-02
-1.180537343025207520e-01 6.688077002763748169e-02 -2.571091949939727783e-01
-5.740199089050292969e-01 8.498850464820861816e-02 3.815171122550964355e-01
-1.805169880390167236e-01 3.754749000072479248e-01 -2.229151502251625061e-02
-2.991820573806762695e-01 4.146411269903182983e-02 -5.057492256164550781e-01
-6.974428296089172363e-01 2.378184050321578979e-01 -2.875075489282608032e-02
-2.020152509212493896e-01 3.647702634334564209e-01 -2.166423350572586060e-01
-1.128561496734619141e-01 2.054259926080703735e-01 6.904570758342742920e-02
-6.395129561424255371e-01 2.391016334295272827e-01 -3.137520551681518555e-01
-1.658158898353576660e-01 3.472302854061126709e-01 -3.764748573303222656e-02
-6.008079648017883301e-01 -1.847641170024871826e-02 -2.114711999893188477e-01
-8.505290746688842773e-02 -6.763097643852233887e-02 1.082154735922813416e-02
-4.073595106601715088e-01 3.565983772277832031e-01 -4.760835170745849609e-01
-3.883925676345825195e-01 5.066313147544860840e-01 3.093872368335723877e-01
-6.829087138175964355e-01 2.106824070215225220e-01 1.488299220800399780e-01
-2.371091246604919434e-01 -1.614163964986801147e-01 3.472015261650085449e-01
-5.131675004959106445e-01 2.461270987987518311e-02 -4.339255690574645996e-01
-3.093122839927673340e-01 -8.805915713310241699e-02 -4.558329284191131592e-01
-5.263267159461975098e-01 2.227348834276199341e-01 -4.779069423675537109e-01
-6.621889472007751465e-01 4.320001602172851562e-01 -1.812847107648849487e-01
-1.053591072559356689e-01 -5.314955115318298340e-02 1.803245395421981812e-01
-5.417422056198120117e-01 5.799018740653991699e-01 1.761296391487121582e-01
-2.180925756692886353e-01 -2.925291657447814941e-01 2.548270858824253082e-02
-6.500879526138305664e-01 1.299171596765518188e-01 -2.302696406841278076e-01
-3.849076628684997559e-01 -2.042687982320785522e-01 -3.176765739917755127e-01
-6.213835477828979492e-01 6.263571232557296753e-02 2.567991614341735840e-01
-3.407011330127716064e-01 4.594633579254150391e-01 -3.415338695049285889e-01
-1.895372718572616577e-01 -2.726902365684509277e-01 -7.390037924051284790e-02
-1.503235399723052979e-01 1.105014607310295105e-01 3.149170279502868652e-01
-1.084925532341003418e-01 -1.389637142419815063e-01 -1.230259314179420471e-01
-5.107412934303283691e-01 -1.929874271154403687e-01 2.541630342602729797e-02
-3.778141140937805176e-01 1.808523237705230713e-01 -5.318430662155151367e-01
-3.130120337009429932e-01 -3.084235787391662598e-01 -5.303549114614725113e-03
-5.200113654136657715e-01 6.105804443359375000e-01 6.122021377086639404e-02
-5.160226225852966309e-01 -1.288706511259078979e-01 2.489405572414398193e-01
-2.878935635089874268e-01 -2.077168673276901245e-01 -3.365871012210845947e-01
-3.515379130840301514e-01 -2.975413203239440918e-01 5.300381779670715332e-02
-5.090138316154479980e-01 -1.819138377904891968e-01 -1.305840015411376953e-01
-5.775938630104064941e-01 -9.286083281040191650e-02 -1.238468959927558899e-01
-3.582426309585571289e-01 5.213107466697692871e-01 -2.536452412605285645e-01
-3.307482302188873291e-01 5.534854531288146973e-01 4.081800580024719238e-02
-5.389401316642761230e-01 -9.753270447254180908e-02 -2.595140039920806885e-01
-3.143963217735290527e-01 5.354509949684143066e-01 8.639435470104217529e-02
-3.745735883712768555e-01 5.441402792930603027e-01 -2.217273563146591187e-01
-3.866094946861267090e-01 -2.529790401458740234e-01 -2.118682116270065308e-01
-1.241086125373840332e-01 2.409619987010955811e-01 -8.762190490961074829e-02
-1.128089725971221924e-01 8.826097100973129272e-02 2.120862901210784912e-01
-5.236417651176452637e-01 -1.744040995836257935e-01 -8.034186065196990967e-02
-4.044225215911865234e-01 -2.593150138854980469e-01 1.471218764781951904e-01
-5.252106785774230957e-01 7.224468141794204712e-02 4.408192634582519531e-01
-3.005140423774719238e-01 1.790500432252883911e-01 4.938765764236450195e-01
-2.413378506898880005e-01 3.519683182239532471e-01 -3.361642360687255859e-01
-6.363023519515991211e-01 1.281286776065826416e-01 -2.747004032135009766e-01
-6.588195562362670898e-01 9.159837663173675537e-02 -1.367947012186050415e-01
-5.809769630432128906e-01 -6.107090413570404053e-02 1.950391232967376709e-01
-6.073498725891113281e-01 4.618735909461975098e-01 2.879502177238464355e-01
-6.562281847000122070e-01 5.350139737129211426e-02 -1.639131270349025726e-02
-1.154654324054718018e-01 -1.183998733758926392e-01 1.664859652519226074e-01
-4.572759270668029785e-01 6.049099564552307129e-01 -1.036503240466117859e-01
-6.738048791885375977e-01 3.980073928833007812e-01 1.736615300178527832e-01
-1.956211775541305542e-01 4.791527241468429565e-02 4.032638967037200928e-01
-1.272123456001281738e-01 8.891040831804275513e-02 2.608337700366973877e-01
-6.049238443374633789e-01 2.888470888137817383e-01 -3.810588121414184570e-01
-4.189224839210510254e-01 5.927622318267822266e-01 -1.179159805178642273e-01
-1.795503646135330200e-01 -2.671290636062622070e-01 3.255353122949600220e-02
-5.555760860443115234e-01 -1.039229780435562134e-01 -1.947017908096313477e-01
-2.213712632656097412e-01 4.392296671867370605e-01 -3.547466546297073364e-02
-5.208640694618225098e-01 5.442116260528564453e-01 2.710928618907928467e-01
-1.670978069305419922e-01 1.930121034383773804e-01 3.139990568161010742e-01
-1.570368558168411255e-01 1.286722272634506226e-01 -3.408465087413787842e-01
-2.681345641613006592e-01 8.503086119890213013e-02 -4.931154549121856689e-01
-4.475944042205810547e-01 1.273494809865951538e-01 -5.200842022895812988e-01
-5.994930863380432129e-01 5.055604577064514160e-01 2.470043897628784180e-01
-1.793226301670074463e-01 2.087134122848510742e-02 3.771495521068572998e-01
-4.037509858608245850e-01 5.702798366546630859e-01 -1.860859394073486328e-01
-2.819505035877227783e-01 -3.022506833076477051e-01 -1.013488173484802246e-01
-6.962045431137084961e-01 3.077849149703979492e-01 9.414557367563247681e-02
-4.241084456443786621e-01 5.754916071891784668e-01 1.898586153984069824e-01
-6.871412992477416992e-01 2.843696475028991699e-01 1.573665291070938110e-01
-1.291516721248626709e-01 2.610530853271484375e-01 4.191529750823974609e-02
-6.434379816055297852e-01 6.384246051311492920e-02 -1.740729361772537231e-01
-1.742676198482513428e-01 -2.228541821241378784e-01 -1.991120427846908569e-01
-5.256903171539306641e-01 1.725957244634628296e-01 -4.756399989128112793e-01
-1.433842927217483521e-01 2.903940081596374512e-01 7.911461591720581055e-02
-3.567297160625457764e-01 -1.157397776842117310e-01 4.219951629638671875e-01
-6.712633371353149414e-01 9.986104071140289307e-02 1.011503860354423523e-03
-5.997183322906494141e-01 1.963686048984527588e-01 -3.860166966915130615e-01
-6.249859333038330078e-01 7.148994505405426025e-02 -2.576931118965148926e-01
-2.446225881576538086e-01 -3.023776412010192871e-01 2.574852108955383301e-02
-4.190988242626190186e-01 2.859763056039810181e-02 4.952193200588226318e-01
-1.440619081258773804e-01 -1.404232829809188843e-01 -2.517418265342712402e-01
-4.901911914348602295e-01 -7.120767235755920410e-02 -3.830851912498474121e-01
-2.532693147659301758e-01 1.581944376230239868e-01 4.602878987789154053e-01
-1.152301132678985596e-01 2.996157109737396240e-02 -2.537091076374053955e-01
-5.065701007843017578e-01 5.526862740516662598e-01 2.619744837284088135e-01
-3.010734319686889648e-01 -1.693398207426071167e-01 3.699992001056671143e-01
-6.912631392478942871e-01 1.877287030220031738e-01 7.304504048079252243e-03
-4.584836959838867188e-01 3.773047924041748047e-01 4.598523974418640137e-01
-4.441489577293395996e-01 -2.522000074386596680e-01 -4.068819433450698853e-02
-6.043630838394165039e-01 5.648779273033142090e-01 9.014991670846939087e-02
-5.783192515373229980e-01 -8.321756124496459961e-02 -1.538204252719879150e-01
-4.596425592899322510e-01 -2.226811647415161133e-02 -4.549655318260192871e-01
-1.706470549106597900e-01 3.126118183135986328e-01 -2.010829150676727295e-01
-2.181452512741088867e-01 4.089829921722412109e-01 1.590444743633270264e-01
-5.063774585723876953e-01 6.141294240951538086e-01 -4.081811010837554932e-02
-5.623580217361450195e-01 -1.133623272180557251e-01 -1.349525600671768188e-01
-4.827499389648437500e-01 -3.607700765132904053e-02 -4.238538146018981934e-01
-8.420604467391967773e-02 4.362642765045166016e-02 -8.208883553743362427e-02
-1.506353467702865601e-01 2.626623213291168213e-01 -2.067188322544097900e-01
-2.699912190437316895e-01 -3.063858747482299805e-01 -5.827958509325981140e-02
-6.449849605560302734e-01 3.615444898605346680e-02 9.450327605009078979e-02
-6.256953477859497070e-01 -6.960257887840270996e-03 1.048560068011283875e-01
-6.050318479537963867e-01 1.778472810983657837e-01 3.702643513679504395e-01
-4.005186259746551514e-01 3.382437229156494141e-01 -4.854969680309295654e-01
-5.349857807159423828e-01 5.639300346374511719e-01 -2.222888320684432983e-01
-4.154177308082580566e-01 -2.551406025886535645e-01 1.387980729341506958e-01
-5.771743059158325195e-01 4.587957262992858887e-01 -3.325006067752838135e-01
-5.792525410652160645e-01 5.559709072113037109e-01 -1.845778971910476685e-01
-8.711484074592590332e-02 9.972462058067321777e-02 1.305304933339357376e-03
-5.368359088897705078e-01 3.189678490161895752e-02 -4.087381064891815186e-01
-6.995439529418945312e-01 3.192913532257080078e-01 -4.576894268393516541e-02
-4.999357461929321289e-01 1.511420309543609619e-02 -4.424453675746917725e-01
-6.563094258308410645e-01 2.424896061420440674e-01 -2.695949971675872803e-01
-8.811154961585998535e-02 5.245769768953323364e-02 9.616118669509887695e-02
-3.856802880764007568e-01 -8.731479942798614502e-02 -4.503443837165832520e-01
-6.796277761459350586e-01 1.358004361391067505e-01 -4.580346494913101196e-02
-2.670046091079711914e-01 4.541124105453491211e-01 2.122889906167984009e-01
-6.483979225158691406e-01 1.179228052496910095e-01 2.240336537361145020e-01
-6.239567995071411133e-01 5.204132199287414551e-01 -1.618887037038803101e-01
-3.063035309314727783e-01 -3.054159879684448242e-01 -7.553140074014663696e-02
-1.185959875583648682e-01 -5.549994111061096191e-02 -2.466813623905181885e-01
-3.943968117237091064e-01 5.268297791481018066e-01 2.786294817924499512e-01
-5.889736413955688477e-01 -8.128978312015533447e-02 -9.107685834169387817e-02
-1.226408779621124268e-01 -1.587745100259780884e-01 1.376070082187652588e-01
-4.283012449741363525e-01 -2.890776097774505615e-02 4.616175293922424316e-01
-4.892779290676116943e-01 -1.077107340097427368e-01 3.326207399368286133e-01
-3.031837344169616699e-01 -2.786957621574401855e-01 1.816439926624298096e-01
-5.254261493682861328e-01 3.368036150932312012e-01 4.534638822078704834e-01
-3.627304732799530029e-01 2.835305929183959961e-01 4.937415421009063721e-01
-3.218826651573181152e-01 5.457993149757385254e-01 5.061846598982810974e-02
-6.671996116638183594e-01 1.905016601085662842e-01 2.116198688745498657e-01
-2.430637031793594360e-01 1.695050001144409180e-01 4.469784796237945557e-01
-4.666135609149932861e-01 5.950691699981689453e-01 -1.552629023790359497e-01
-4.735435247421264648e-01 -1.512014716863632202e-01 2.912459373474121094e-01
-4.891349077224731445e-01 -1.807814836502075195e-02 -4.310799241065979004e-01
-2.502458691596984863e-01 4.389297962188720703e-02 -4.767544865608215332e-01
-2.159710824489593506e-01 2.849730849266052246e-02 4.266430735588073730e-01
-1.504608988761901855e-01 5.451541393995285034e-02 3.257863223552703857e-01
-1.786936819553375244e-01 1.768060624599456787e-01 -3.640258312225341797e-01
-2.481173574924468994e-01 -3.188751637935638428e-02 4.405843913555145264e-01
-6.344929933547973633e-01 4.213411211967468262e-01 2.728315293788909912e-01
-6.949238181114196777e-01 2.131002843379974365e-01 -1.667466387152671814e-02
-4.972950220108032227e-01 2.198875099420547485e-01 4.944125413894653320e-01
-4.685447514057159424e-01 5.838349461555480957e-01 1.922412812709808350e-01
-3.728692233562469482e-01 2.096633911132812500e-01 -5.270710587501525879e-01
-4.500777125358581543e-01 -2.485326975584030151e-01 -2.327993325889110565e-02
-3.380795419216156006e-01 5.595648884773254395e-01 -3.599654883146286011e-02
-1.799957603216171265e-01 -1.332384794950485229e-01 3.078951537609100342e-01
-5.200451612472534180e-01 1.023985892534255981e-01 4.588441550731658936e-01
-1.950187087059020996e-01 -2.529040575027465820e-01 -1.727022379636764526e-01
-2.207612842321395874e-01 4.194195866584777832e-01 -1.491853892803192139e-01
-4.839539825916290283e-01 -2.155636698007583618e-01 -8.186375349760055542e-02
-3.302802741527557373e-01 -2.035937756299972534e-01 -3.435036838054656982e-01
-6.719862222671508789e-01 2.681201398372650146e-01 -2.216224521398544312e-01
-2.062221765518188477e-01 2.874597609043121338e-01 3.239647150039672852e-01
-6.546415090560913086e-01 2.198938727378845215e-01 2.692553699016571045e-01
-6.438239812850952148e-01 5.236703753471374512e-01 -5.457498878240585327e-02
-5.928879380226135254e-01 5.663160085678100586e-01 1.255275458097457886e-01
-5.600768923759460449e-01 5.294688940048217773e-01 -2.635837793350219727e-01
-5.568475127220153809e-01 3.636649996042251587e-02 -3.815671503543853760e-01
-6.114691495895385742e-01 2.975535988807678223e-01 3.690566420555114746e-01
-4.686951637268066406e-01 1.517184823751449585e-01 5.069608688354492188e-01
-2.958228588104248047e-01 6.497659534215927124e-02 4.947943687438964844e-01
-5.315369963645935059e-01 1.120971143245697021e-02 -4.012729823589324951e-01
-4.493813514709472656e-01 -7.904630899429321289e-02 -4.188931286334991455e-01
-3.425657451152801514e-01 -3.012710213661193848e-01 -5.407395586371421814e-02
-2.340601831674575806e-01 1.755245923995971680e-01 4.348911345005035400e-01
-4.558147192001342773e-01 -6.550091505050659180e-02 4.158122539520263672e-01
-3.087449073791503906e-01 5.270639657974243164e-01 -1.147633418440818787e-01
-6.544823050498962402e-01 1.643112897872924805e-01 -2.419808804988861084e-01
-6.794756650924682617e-01 2.888232469558715820e-01 -1.928732693195343018e-01
-4.817581474781036377e-01 -5.667242407798767090e-02 3.987985253334045410e-01
-2.931082844734191895e-01 -1.055148243904113770e-02 4.751339852809906006e-01
-1.117807328701019287e-01 5.718962848186492920e-02 2.185647040605545044e-01
-4.332303404808044434e-01 -8.359144628047943115e-02 -4.277308583259582520e-01
-6.859292984008789062e-01 1.687542796134948730e-01 -6.013103947043418884e-02
-6.489623785018920898e-01 3.163836002349853516e-01 -2.888856530189514160e-01
-6.740783452987670898e-01 3.667829036712646484e-01 -1.927803307771682739e-01
-1.753848791122436523e-01 2.814754545688629150e-01 -2.674634456634521484e-01
-3.693231642246246338e-01 -2.906006574630737305e-01 -7.720242440700531006e-02
-6.348032951354980469e-01 3.398084938526153564e-01 -3.151918649673461914e-01
-3.804146945476531982e-01 -2.591285705566406250e-01 1.877016723155975342e-01
-3.829496502876281738e-01 5.257722735404968262e-02 5.108374953269958496e-01
-1.391910016536712646e-01 1.619252413511276245e-01 2.601454854011535645e-01
-5.157704949378967285e-01 6.094185709953308105e-01 -7.616446912288665771e-02
-1.177611052989959717e-01 -3.485491871833801270e-02 2.324251234531402588e-01
-6.971629858016967773e-01 2.348137795925140381e-01 3.026200085878372192e-02
-6.129665374755859375e-01 5.368568897247314453e-01 1.577169746160507202e-01
-1.291158795356750488e-01 -1.128285974264144897e-01 2.182898670434951782e-01
-5.615062713623046875e-01 -1.230922788381576538e-01 8.935219794511795044e-02
-5.637042522430419922e-01 3.678751587867736816e-01 4.092189073562622070e-01
-3.598312139511108398e-01 -1.491693407297134399e-01 -4.027994871139526367e-01
-3.424604535102844238e-01 5.350303053855895996e-01 -1.895601451396942139e-01
-2.639609575271606445e-01 -3.036373257637023926e-01 -7.724787294864654541e-02
-5.095989108085632324e-01 -1.001978367567062378e-01 -3.183236420154571533e-01
-6.391358375549316406e-01 1.676477789878845215e-01 2.908293306827545166e-01
-2.012010067701339722e-01 -1.517388671636581421e-01 -3.392386436462402344e-01
-4.994150996208190918e-01 5.163962841033935547e-01 -3.242336511611938477e-01
-1.232993602752685547e-01 2.270605564117431641e-01 1.066243574023246765e-01
-5.321713089942932129e-01 3.908455669879913330e-01 -4.248794615268707275e-01
-5.246322154998779297e-01 6.109727025032043457e-01 4.789233207702636719e-02
-2.147230207920074463e-01 3.708087801933288574e-01 -2.463541030883789062e-01
-5.317076444625854492e-01 3.011945188045501709e-01 -4.626941680908203125e-01
-6.516848206520080566e-01 3.025500774383544922e-01 -2.842316031455993652e-01
-1.087831854820251465e-01 1.587294340133666992e-01 1.344665437936782837e-01
-1.598267406225204468e-01 -1.908736675977706909e-01 2.031899392604827881e-01
-4.194764196872711182e-01 5.346333980560302734e-01 -2.863043844699859619e-01
-4.603013396263122559e-01 2.579796314239501953e-01 -5.113024711608886719e-01
-3.717744052410125732e-01 5.818775892257690430e-01 -1.725764013826847076e-02
-6.883599758148193359e-01 3.606960177421569824e-01 1.291991770267486572e-01
-6.833439469337463379e-01 1.611028015613555908e-01 -7.502198964357376099e-02
-6.346186399459838867e-01 3.541962057352066040e-02 1.632791608572006226e-01
-4.707525074481964111e-01 1.192092299461364746e-01 5.005158185958862305e-01
-8.055549860000610352e-02 1.487495005130767822e-02 1.103957183659076691e-02
-2.172188460826873779e-01 -2.299395054578781128e-01 2.379837781190872192e-01
-3.589936196804046631e-01 5.709691643714904785e-01 6.411017477512359619e-02
-3.029215633869171143e-01 3.030799627304077148e-01 4.469692111015319824e-01
-2.807095050811767578e-01 4.221389889717102051e-01 -3.122750520706176758e-01
-3.187531828880310059e-01 5.123110413551330566e-01 -2.029542177915573120e-01
-2.370856851339340210e-01 -1.498683542013168335e-01 3.582130372524261475e-01
-1.746057868003845215e-01 -9.784470498561859131e-02 -3.450730443000793457e-01
-5.642010569572448730e-01 -8.695229887962341309e-02 -2.042660266160964966e-01
-3.292964100837707520e-01 3.134408593177795410e-02 -5.129145383834838867e-01
-5.186505317687988281e-01 5.225105285644531250e-01 -3.072848916053771973e-01
-5.262464284896850586e-01 2.828284502029418945e-01 -4.711923003196716309e-01
-9.878155589103698730e-02 -1.347947269678115845e-01 6.505568977445363998e-03
-6.526713967323303223e-01 4.927090406417846680e-01 -1.152044013142585754e-01
-1.253594756126403809e-01 1.659394353628158569e-01 -2.261331677436828613e-01
-4.006293416023254395e-01 -2.745606303215026855e-01 7.833735644817352295e-02
-1.680012941360473633e-01 -2.475415021181106567e-01 -1.091980934143066406e-01
-2.949534058570861816e-01 2.413258254528045654e-01 4.714654684066772461e-01
-4.113430678844451904e-01 5.584172606468200684e-01 2.250117808580398560e-01
-1.650011092424392700e-01 3.360208272933959961e-01 -1.029974296689033508e-01
-4.914489388465881348e-01 4.494512081146240234e-02 -4.671222865581512451e-01
-3.221992254257202148e-01 -1.365209072828292847e-01 4.053067564964294434e-01
-3.289825320243835449e-01 2.346660494804382324e-01 -5.062489509582519531e-01
-2.880679666996002197e-01 -9.070780873298645020e-02 -4.483044147491455078e-01
-2.765337824821472168e-01 5.000513195991516113e-01 -9.251977503299713135e-02
-6.533080935478210449e-01 4.584204405546188354e-02 -2.399032376706600189e-02
-5.392893552780151367e-01 4.778277277946472168e-01 -3.498639762401580811e-01
-8.614611625671386719e-02 4.890657216310501099e-02 8.008217811584472656e-02
-5.913405418395996094e-01 5.821920633316040039e-01 -3.775583952665328979e-02
-3.252477645874023438e-01 4.909099936485290527e-01 -2.673062086105346680e-01
-2.298772335052490234e-01 -2.578383684158325195e-01 1.958980858325958252e-01
-3.658982515335083008e-01 -1.392702907323837280e-01 3.978421390056610107e-01
-5.610953569412231445e-01 5.530392527580261230e-01 2.200585901737213135e-01
-4.433615207672119141e-01 -2.134322375059127808e-01 2.141228467226028442e-01
-5.658980607986450195e-01 5.818195939064025879e-01 -1.321381479501724243e-01
-4.719388782978057861e-01 5.960633605718612671e-02 4.814594984054565430e-01
-6.538302898406982422e-01 2.259073555469512939e-01 -2.730012536048889160e-01
-5.715457797050476074e-01 6.259476393461227417e-02 3.712067008018493652e-01
-5.630989074707031250e-01 5.868583917617797852e-01 -1.177181378006935120e-01
-1.871767342090606689e-01 1.393425762653350830e-01 3.790481686592102051e-01
-5.358174443244934082e-01 -6.960241496562957764e-02 3.039546906948089600e-01
-4.551980495452880859e-01 -2.009141892194747925e-01 2.227168232202529907e-01
-6.446418762207031250e-01 3.573344349861145020e-01 2.883552014827728271e-01
-1.534722596406936646e-01 -2.095844894647598267e-01 1.503943204879760742e-01
-2.952527999877929688e-01 1.338591873645782471e-01 4.965771734714508057e-01
-5.493050813674926758e-01 5.061644315719604492e-02 3.982379138469696045e-01
-5.204107165336608887e-01 -1.692050546407699585e-01 -1.302849501371383667e-01
-5.119191408157348633e-01 5.911892652511596680e-01 1.648512184619903564e-01
-4.787413477897644043e-01 -1.836417764425277710e-01 -2.249571382999420166e-01
-3.748523592948913574e-01 -1.969521194696426392e-01 -3.360510766506195068e-01
-6.468836665153503418e-01 5.090934783220291138e-02 1.242158263921737671e-01
-6.270968317985534668e-01 4.142598062753677368e-02 -2.110064178705215454e-01
-2.330671548843383789e-01 4.518644213676452637e-01 6.112840771675109863e-02
-4.970431029796600342e-01 2.789475917816162109e-01 4.870090782642364502e-01
-6.367697715759277344e-01 2.188436686992645264e-02 -1.184267848730087280e-01
-6.852757334709167480e-01 2.571877539157867432e-01 1.615596711635589600e-01
-2.773358523845672607e-01 3.588336110115051270e-01 -3.854269385337829590e-01
-3.748935759067535400e-01 -2.515186071395874023e-01 -2.297528237104415894e-01
-6.157544255256652832e-01 -1.667574048042297363e-02 1.418986916542053223e-01
-2.511260509490966797e-01 -2.137605398893356323e-01 2.945876419544219971e-01
-1.470717638731002808e-01 1.882178485393524170e-01 -2.809161543846130371e-01
-6.155893802642822266e-01 5.559245944023132324e-01 8.004596829414367676e-02
-2.695046663284301758e-01 4.486064314842224121e-01 2.315770387649536133e-01
-1.181733906269073486e-01 2.063002884387969971e-01 -1.329012364149093628e-01
-1.123101115226745605e-01 1.460154950618743896e-01 1.695826202630996704e-01
-1.395900845527648926e-01 2.297984063625335693e-01 -2.099021524190902710e-01
-4.090660512447357178e-01 3.196989297866821289e-01 4.897927939891815186e-01
-4.944826662540435791e-01 5.986365079879760742e-01 -1.440837681293487549e-01
-3.861208558082580566e-01 -2.400169819593429565e-01 2.323875278234481812e-01
-3.293879926204681396e-01 -2.798135280609130859e-01 -1.861411184072494507e-01
-6.339479088783264160e-01 5.149015784263610840e-02 1.958808600902557373e-01
-4.570950865745544434e-01 4.612748622894287109e-01 3.936746716499328613e-01
-6.657359004020690918e-01 3.216642141342163086e-01 2.421768903732299805e-01
-4.464905858039855957e-01 -1.136067509651184082e-02 4.621334075927734375e-01
-6.985066533088684082e-01 2.696697413921356201e-01 -5.550793558359146118e-02
-6.490465402603149414e-01 4.002392590045928955e-01 -2.514105439186096191e-01
-6.638222932815551758e-01 1.416028290987014771e-01 1.835944056510925293e-01
-5.640329122543334961e-01 5.830000638961791992e-01 1.332602798938751221e-01
-6.032766103744506836e-01 3.108091652393341064e-01 -3.797608911991119385e-01
-6.530598402023315430e-01 3.526839613914489746e-01 2.692817449569702148e-01
-3.985789120197296143e-01 5.627933740615844727e-01 1.987223327159881592e-01
-1.009107530117034912e-01 -1.425246447324752808e-01 -8.451279252767562866e-03
-9.863889217376708984e-02 2.667897939682006836e-02 1.689161211252212524e-01
-1.800954341888427734e-01 3.573640584945678711e-01 -1.335632950067520142e-01
-1.955357044935226440e-01 -3.114813566207885742e-02 3.879370689392089844e-01
-1.608617007732391357e-01 -1.874537318944931030e-01 -2.315149307250976562e-01
-2.965716123580932617e-01 -2.298660725355148315e-01 2.880466580390930176e-01
-5.052343606948852539e-01 -8.069406449794769287e-02 -3.512385785579681396e-01
-1.544659435749053955e-01 -1.349954307079315186e-02 -3.466124832630157471e-01
-1.024690866470336914e-01 1.333096474409103394e-01 1.268680691719055176e-01
-1.376489400863647461e-01 -9.804706275463104248e-02 -2.733204662799835205e-01
-2.738761901855468750e-01 4.811655282974243164e-01 -1.661241203546524048e-01
-3.998133838176727295e-01 -2.301295548677444458e-01 -2.533442974090576172e-01
-5.297456383705139160e-01 5.804564356803894043e-01 1.858385354280471802e-01
-2.728512883186340332e-01 -2.895395755767822266e-01 1.398598253726959229e-01
-1.650260835886001587e-01 2.375512570142745972e-01 2.724399864673614502e-01
-3.603583574295043945e-01 4.680408239364624023e-01 -3.490080237388610840e-01
-6.388119459152221680e-01 2.614715695381164551e-01 3.179520964622497559e-01
-3.436489701271057129e-01 -4.808117449283599854e-02 4.701361954212188721e-01
-8.845075964927673340e-02 9.175098687410354614e-02 5.848726630210876465e-02
-3.474175930023193359e-01 4.874200224876403809e-01 2.991681993007659912e-01
-1.077291071414947510e-01 -6.730368733406066895e-02 1.814572662115097046e-01
-3.803915381431579590e-01 1.618390530347824097e-01 5.241991281509399414e-01
-2.931575477123260498e-01 5.071264505386352539e-01 1.339799463748931885e-01
-1.025927364826202393e-01 -3.215333819389343262e-02 -1.989510953426361084e-01
-5.567086935043334961e-01 4.483985900878906250e-01 3.635756969451904297e-01
-6.090320348739624023e-01 5.652719736099243164e-02 2.859109342098236084e-01
-1.927155405282974243e-01 -2.619280219078063965e-01 1.182238832116127014e-01
-3.973210155963897705e-01 -2.577793598175048828e-02 4.758818447589874268e-01
-6.996876001358032227e-01 3.413682579994201660e-01 1.145712099969387054e-02
-1.552447676658630371e-01 -1.311438530683517456e-01 -2.856697440147399902e-01
-2.033603340387344360e-01 -2.857993841171264648e-01 1.732928678393363953e-03
-3.730973899364471436e-01 -2.893205881118774414e-01 6.060671061277389526e-02
-2.000798881053924561e-01 -2.829121351242065430e-01 2.213529683649539948e-02
-5.898954868316650391e-01 -4.723562300205230713e-02 1.908663958311080933e-01
-5.935708880424499512e-01 1.806868314743041992e-01 -3.926707804203033447e-01
-2.740915417671203613e-01 2.958118915557861328e-01 -4.338740706443786621e-01
-4.907899200916290283e-01 6.293667852878570557e-02 4.690642952919006348e-01
-1.031511127948760986e-01 1.589381694793701172e-01 -1.095368415117263794e-01
-6.913862824440002441e-01 1.922992914915084839e-01 3.580423071980476379e-02
-6.998136043548583984e-01 3.029782772064208984e-01 -4.590373858809471130e-02
-6.932439804077148438e-01 2.559563517570495605e-01 -1.055913493037223816e-01
-2.519880533218383789e-01 1.350862383842468262e-01 -4.768884181976318359e-01
-1.080412268638610840e-01 1.893832832574844360e-01 6.408856809139251709e-02
-3.315596282482147217e-01 -3.030723929405212402e-01 4.681760817766189575e-02
-2.168689817190170288e-01 3.841549158096313477e-03 -4.394392073154449463e-01
-6.371341347694396973e-01 2.931089997291564941e-01 3.210304975509643555e-01
-1.856574565172195435e-01 -1.688169389963150024e-01 2.814472913742065430e-01
-1.851827651262283325e-01 2.885513901710510254e-01 2.724082469940185547e-01
-9.248790144920349121e-02 8.916555345058441162e-02 -1.227335259318351746e-01
-2.168708890676498413e-01 4.262510538101196289e-01 8.267115056514739990e-02
-2.974461913108825684e-01 4.718910455703735352e-01 -2.548446655273437500e-01
-6.664631366729736328e-01 8.572599291801452637e-02 -3.347536921501159668e-02
-3.220869302749633789e-01 5.394189357757568359e-01 -1.079404652118682861e-01
-4.334628283977508545e-01 1.748138964176177979e-01 -5.279250144958496094e-01
-2.068715840578079224e-01 -9.074588119983673096e-02 -3.916009366512298584e-01
-2.975668907165527344e-01 -1.846065670251846313e-01 -3.679840266704559326e-01
-8.303532004356384277e-02 4.930374771356582642e-02 -5.872785672545433044e-02
-5.675023198127746582e-01 5.980558991432189941e-01 1.447154954075813293e-02
-1.954437941312789917e-01 3.641698360443115234e-01 -1.926079839468002319e-01
-6.300120353698730469e-01 4.545290470123291016e-01 2.516610324382781982e-01
-6.479480862617492676e-01 4.521028399467468262e-01 -2.049423307180404663e-01
-3.412798643112182617e-01 -2.564988732337951660e-01 2.285452336072921753e-01
-4.137448072433471680e-01 2.600464224815368652e-01 5.116057991981506348e-01
-1.756544113159179688e-01 -1.206321865320205688e-01 3.114444017410278320e-01
-4.746859073638916016e-01 -1.733085513114929199e-02 4.373920559883117676e-01
-6.855533123016357422e-01 1.721020936965942383e-01 7.519328594207763672e-02
-3.174874484539031982e-01 5.224440693855285645e-01 -1.670882999897003174e-01
-6.034947037696838379e-01 5.258691310882568359e-01 -2.026602476835250854e-01
-4.954203963279724121e-01 -2.094813734292984009e-01 -7.463495712727308273e-03
-5.980303883552551270e-01 5.555967688560485840e-01 1.469191610813140869e-01
-3.165227174758911133e-01 4.546509385108947754e-01 -3.185681402683258057e-01
-3.519766032695770264e-01 -2.976906895637512207e-01 -6.564942002296447754e-02
-4.961656928062438965e-01 3.118935227394104004e-02 -4.556589424610137939e-01
-4.016419649124145508e-01 -2.710262537002563477e-01 9.819047898054122925e-02
-1.058534085750579834e-01 1.835790276527404785e-01 -7.262914627790451050e-02
-3.628284335136413574e-01 2.185756713151931763e-01 5.140618681907653809e-01
-4.982136189937591553e-01 -1.470993310213088989e-01 2.529253661632537842e-01
-5.228360891342163086e-01 -1.772991269826889038e-01 -6.378190219402313232e-02
-2.119119316339492798e-01 2.370502948760986328e-01 -3.885206282138824463e-01
-1.181271672248840332e-01 1.970859766006469727e-01 1.332978755235671997e-01
-5.194031000137329102e-01 -1.529800742864608765e-01 1.827173233032226562e-01
-6.741579771041870117e-01 1.666373759508132935e-01 -1.570751368999481201e-01
-6.227426528930664062e-01 5.363342761993408203e-01 -1.235416755080223083e-01
-8.726474642753601074e-02 -4.534693062305450439e-02 -1.020685806870460510e-01
-6.098487377166748047e-01 5.268372297286987305e-01 -1.863131374120712280e-01
-6.329126954078674316e-01 8.364349603652954102e-03 -1.040518134832382202e-01
-5.080853700637817383e-01 4.649908095598220825e-02 4.456104040145874023e-01
-3.986502289772033691e-01 5.552303194999694824e-01 -2.236324995756149292e-01
-6.539719700813293457e-01 3.689048886299133301e-01 -2.573756277561187744e-01
-6.998939514160156250e-01 2.705449461936950684e-01 -2.612122334539890289e-02
-6.171978712081909180e-01 -2.579092979431152344e-02 -1.052479818463325500e-01
-8.964765071868896484e-02 -3.149369359016418457e-02 1.090949997305870056e-01
-2.573156952857971191e-01 3.306009769439697266e-01 -3.849446177482604980e-01
-1.608014851808547974e-01 3.380588889122009277e-01 6.710057612508535385e-03
-6.126704812049865723e-01 -4.095567762851715088e-02 7.192718237638473511e-02
-6.514029502868652344e-01 1.949102133512496948e-01 2.691966891288757324e-01
-3.164558410644531250e-01 5.374756455421447754e-01 -9.115496277809143066e-02
-3.010508120059967041e-01 4.293392300605773926e-01 3.255058825016021729e-01
-3.796895742416381836e-01 3.225324749946594238e-01 -4.889396727085113525e-01
-3.155201077461242676e-01 -2.358749955892562866e-01 2.782824337482452393e-01
-2.050012946128845215e-01 2.910087108612060547e-01 -3.312228620052337646e-01
-6.880606412887573242e-01 1.723991036415100098e-01 -3.026879951357841492e-02
-5.465941429138183594e-01 3.090094923973083496e-01 -4.480697214603424072e-01
-1.942724734544754028e-01 3.889849185943603516e-01 -1.058577075600624084e-01
-3.358862102031707764e-01 4.626495838165283203e-01 3.243493437767028809e-01
-2.111573815345764160e-01 3.854510784149169922e-01 1.922371089458465576e-01
-6.873320937156677246e-01 1.907883286476135254e-01 9.228196740150451660e-02
-4.671429693698883057e-01 -5.651631951332092285e-02 -4.225343167781829834e-01
-4.326205849647521973e-01 -9.933392703533172607e-02 -4.136606752872467041e-01
-1.368022263050079346e-01 2.795994579792022705e-01 5.170182883739471436e-02
-6.966635584831237793e-01 2.544935047626495361e-01 7.136914879083633423e-02
-6.877987980842590332e-01 4.159533381462097168e-01 4.899471625685691833e-02
-1.099431812763214111e-01 -6.377990543842315674e-02 -2.129753828048706055e-01
-6.953787803649902344e-01 3.378233909606933594e-01 -8.760259300470352173e-02
-1.942168325185775757e-01 -2.300736755132675171e-01 -2.241995930671691895e-01
-5.986001491546630859e-01 5.731585025787353516e-01 -6.789189577102661133e-02
-4.435255229473114014e-01 1.090763509273529053e-02 -4.852148592472076416e-01
-2.500622272491455078e-01 -2.443920820951461792e-01 2.430075258016586304e-01
-3.553141057491302490e-01 -2.830639481544494629e-01 1.345959752798080444e-01
-6.535023450851440430e-01 1.587503105401992798e-01 2.412197142839431763e-01
-3.134356737136840820e-01 1.430843770503997803e-01 5.058844685554504395e-01
-1.706265807151794434e-01 2.148531228303909302e-01 3.068922758102416992e-01
-4.491413533687591553e-01 -1.027749925851821899e-01 3.857620358467102051e-01
-6.784534454345703125e-01 4.487857222557067871e-01 -5.250336974859237671e-02
-5.443542003631591797e-01 1.298433542251586914e-01 4.426575601100921631e-01
-5.763899087905883789e-01 4.706363081932067871e-01 3.225502669811248779e-01
-8.923912048339843750e-02 -1.694732904434204102e-02 1.121831834316253662e-01
-3.756981790065765381e-01 3.892467319965362549e-01 -4.431662857532501221e-01
-6.719527244567871094e-01 1.700633317232131958e-01 1.732236295938491821e-01
-6.934983134269714355e-01 2.453749179840087891e-01 -9.622815251350402832e-02
-5.794262290000915527e-01 -1.046633571386337280e-01 -4.443133249878883362e-03
-2.468874007463455200e-01 3.304612040519714355e-01 3.576367795467376709e-01
-5.873723626136779785e-01 -3.938221931457519531e-02 2.165600657463073730e-01
-1.124508082866668701e-01 -9.558831155300140381e-02 1.780610382556915283e-01
-3.126373887062072754e-01 -2.987370491027832031e-01 1.006480455398559570e-01
-3.422593772411346436e-01 2.704519033432006836e-01 -4.992711246013641357e-01
-5.923717617988586426e-01 2.867964506149291992e-01 3.994331955909729004e-01
-3.158118128776550293e-01 -6.075605750083923340e-03 4.849220812320709229e-01
-6.262190341949462891e-01 3.436983227729797363e-01 -3.311479985713958740e-01
-1.264249980449676514e-01 1.683309823274612427e-01 2.106780707836151123e-01
-5.724041461944580078e-01 3.254429697990417480e-01 4.160850346088409424e-01
-2.646068334579467773e-01 1.485998630523681641e-01 4.725079834461212158e-01
-1.953061521053314209e-01 1.045985817909240723e-01 -4.158147871494293213e-01
-5.756160020828247070e-01 2.615586221218109131e-01 4.236037731170654297e-01
-6.828109025955200195e-01 3.846186399459838867e-01 -1.387532651424407959e-01
-6.833707094192504883e-01 1.851958632469177246e-01 -1.180523857474327087e-01
-4.490643739700317383e-01 -2.230216115713119507e-01 -1.853481233119964600e-01
-1.426926255226135254e-01 -2.278449088335037231e-01 -4.089909419417381287e-02
-2.462018579244613647e-01 4.718546867370605469e-01 2.212055586278438568e-02
-1.683895140886306763e-01 -2.588271498680114746e-01 -2.499702572822570801e-02
-4.448122382164001465e-01 -1.252339631319046021e-01 -3.749591410160064697e-01
-6.417629718780517578e-01 5.305878520011901855e-01 -1.749439164996147156e-02
-3.524987101554870605e-01 3.593285977840423584e-01 -4.541057944297790527e-01
-4.593150913715362549e-01 -2.406728714704513550e-01 -3.982438892126083374e-02
-3.269723653793334961e-01 -1.579812914133071899e-01 -3.991693854331970215e-01
-1.189740002155303955e-01 -1.885429769754409790e-01 -1.858450472354888916e-03
-6.126431226730346680e-01 -3.150191903114318848e-02 1.148972138762474060e-01
-1.821872591972351074e-01 3.881743550300598145e-02 3.832395970821380615e-01
-4.140472114086151123e-01 5.844448804855346680e-01 1.457483172416687012e-01
-3.431139886379241943e-01 2.420683950185775757e-01 -5.102210640907287598e-01
-3.484543561935424805e-01 3.958537578582763672e-01 -4.214354753494262695e-01
-1.899054050445556641e-01 3.271703422069549561e-02 -4.111411273479461670e-01
-2.824459373950958252e-01 2.114194333553314209e-01 -4.840114116668701172e-01
-5.266960263252258301e-01 -1.759105175733566284e-01 -6.495130248367786407e-03
-3.014159798622131348e-01 3.182672262191772461e-01 4.358044862747192383e-01
-9.705844521522521973e-02 1.123463958501815796e-01 1.137668937444686890e-01
-4.176944196224212646e-01 3.301433324813842773e-01 4.858180582523345947e-01
-5.456639528274536133e-01 3.901444673538208008e-01 -4.149188399314880371e-01
-3.018393218517303467e-01 1.715195029973983765e-01 -5.077252388000488281e-01
-2.267678231000900269e-01 -2.876233458518981934e-01 9.291247278451919556e-02
-5.678745508193969727e-01 -5.493642389774322510e-02 2.499268054962158203e-01
-1.066233515739440918e-01 -1.384825855493545532e-01 8.981598913669586182e-02
-4.544408321380615234e-01 -2.090836614370346069e-01 2.030526250600814819e-01
-2.872790098190307617e-01 1.619981974363327026e-01 4.880611896514892578e-01
-2.916159331798553467e-01 6.656680256128311157e-02 -5.060321092605590820e-01
-5.998014807701110840e-01 5.731055140495300293e-01 6.415481865406036377e-02
-4.296839833259582520e-01 5.279049277305603027e-01 3.003840148448944092e-01
-8.357724547386169434e-02 -2.166640758514404297e-02 5.913177877664566040e-02
-1.343739628791809082e-01 2.704354524612426758e-01 6.704466044902801514e-02
-2.632225453853607178e-01 1.706364154815673828e-01 4.669036567211151123e-01
-2.975518703460693359e-01 5.010701417922973633e-01 -1.796499490737915039e-01
-5.750635266304016113e-01 -1.007706373929977417e-01 1.006822362542152405e-01
-1.408567875623703003e-01 -1.557821184396743774e-01 -2.256287783384323120e-01
-8.445858955383300781e-02 -6.444454193115234375e-02 -2.303775213658809662e-02
-1.723974794149398804e-01 -8.189330995082855225e-02 3.321927487850189209e-01
-1.944745779037475586e-01 -2.567733526229858398e-01 1.398998945951461792e-01
-8.576312661170959473e-02 1.933449506759643555e-02 -1.087996661663055420e-01
-2.599382400512695312e-01 4.871605634689331055e-01 -4.631936550140380859e-02
-4.008493721485137939e-01 2.760488986968994141e-01 -5.131418704986572266e-01
-6.614577770233154297e-01 4.859310984611511230e-01 8.413618057966232300e-02
-1.921234577894210815e-01 -1.907479017972946167e-01 -2.838822305202484131e-01
-5.130879878997802734e-01 -1.068166643381118774e-01 -3.019045591354370117e-01
-4.368356466293334961e-01 -2.261758595705032349e-01 1.917990446090698242e-01
-1.352682113647460938e-01 -1.256995648145675659e-01 2.234604656696319580e-01
-9.365946054458618164e-02 7.603260874748229980e-02 1.230444461107254028e-01
-6.872253417968750000e-01 3.867394924163818359e-01 1.120301112532615662e-01
-6.303458213806152344e-01 5.410032272338867188e-01 -6.462674587965011597e-02
-4.797784686088562012e-01 -2.111359983682632446e-01 1.203950569033622742e-01
-4.627950191497802734e-01 -2.289981991052627563e-01 -1.153183802962303162e-01
-1.718700528144836426e-01 3.595834374427795410e-01 -2.450662292540073395e-02
-2.161597013473510742e-01 4.248648285865783691e-01 -9.610468149185180664e-02
-4.244166016578674316e-01 5.409421324729919434e-01 2.737608551979064941e-01
-3.849435448646545410e-01 4.875534772872924805e-01 3.360818922519683838e-01
-5.199980139732360840e-01 -1.481405049562454224e-01 -2.025229483842849731e-01
-5.073158144950866699e-01 3.128671646118164062e-01 4.726241827011108398e-01
-4.320920407772064209e-01 -6.398957967758178711e-02 -4.447796046733856201e-01
-1.977547556161880493e-01 2.084384858608245850e-01 3.674037754535675049e-01
-5.312343835830688477e-01 5.863568186759948730e-01 -1.660462915897369385e-01
-4.720386564731597900e-01 2.039799094200134277e-02 -4.707877635955810547e-01
-5.945799350738525391e-01 3.125209212303161621e-01 3.918446302413940430e-01
-4.593964517116546631e-01 6.018987894058227539e-01 -1.217687278985977173e-01
-5.478703379631042480e-01 3.603432327508926392e-02 -3.955531716346740723e-01
-6.281642913818359375e-01 4.725693464279174805e-01 2.346615642309188843e-01
-4.317168593406677246e-01 3.973799347877502441e-01 -4.516845643520355225e-01
-5.427123308181762695e-01 4.842433929443359375e-01 3.402283489704132080e-01
-2.132664471864700317e-01 -2.081596106290817261e-01 2.682467699050903320e-01
-8.666193485260009766e-02 -2.482031285762786865e-02 8.910343796014785767e-02
-6.831835508346557617e-01 4.393773674964904785e-01 1.463140547275543213e-02
-4.822502136230468750e-01 -1.340468972921371460e-01 -3.146883845329284668e-01
-1.221559643745422363e-01 7.482641935348510742e-02 -2.681272625923156738e-01
-5.849392414093017578e-01 4.462082386016845703e-01 -3.343781530857086182e-01
-4.175171256065368652e-01 5.271093845367431641e-01 -2.989456057548522949e-01
-4.663294553756713867e-01 4.479500651359558105e-01 4.061986804008483887e-01
-5.769559144973754883e-01 -1.053532510995864868e-01 -5.949314311146736145e-02
-3.768403828144073486e-01 5.610507130622863770e-01 1.696493774652481079e-01
-1.336819529533386230e-01 -1.700365096330642700e-01 1.614106893539428711e-01
-5.468618869781494141e-01 -1.325969845056533813e-01 1.374108791351318359e-01
-5.007156729698181152e-01 -2.035685628652572632e-01 2.258068136870861053e-02
-1.843973249197006226e-01 -1.053363084793090820e-03 3.810533583164215088e-01
-5.322581529617309570e-01 2.855320274829864502e-02 4.069130718708038330e-01
-3.185822069644927979e-01 4.944952726364135742e-01 -2.476915419101715088e-01
-3.109874725341796875e-01 5.212801694869995117e-01 1.433551311492919922e-01
-3.641254901885986328e-01 -3.908905386924743652e-02 4.746655225753784180e-01
-2.409861683845520020e-01 -8.801716566085815430e-02 4.076355099678039551e-01
-4.718742370605468750e-01 -9.612607955932617188e-02 3.695097863674163818e-01
-5.553247332572937012e-01 -5.070251226425170898e-02 -2.944516837596893311e-01
-5.247489809989929199e-01 6.111271977424621582e-01 -4.480150714516639709e-02
-6.351248621940612793e-01 2.453069090843200684e-01 3.248668909072875977e-01
-1.990638375282287598e-01 3.878948688507080078e-01 -1.423992216587066650e-01
-5.503014922142028809e-01 5.949161648750305176e-01 -1.071421578526496887e-01
-4.030430018901824951e-01 5.403392314910888672e-01 -2.630549967288970947e-01
-6.804088354110717773e-01 4.475719928741455078e-01 2.784135937690734863e-02
-6.742461919784545898e-01 1.159599721431732178e-01 -5.307717621326446533e-02
-6.789994835853576660e-01 2.597021460533142090e-01 -1.914392709732055664e-01
-3.607359826564788818e-01 4.586243033409118652e-01 3.557295799255371094e-01
-2.562279999256134033e-01 1.865569055080413818e-01 -4.688832759857177734e-01
-6.904152631759643555e-01 1.835991740226745605e-01 -1.728039048612117767e-02
-1.356368362903594971e-01 2.814456522464752197e-01 -1.701891422271728516e-02
-2.565548419952392578e-01 3.517519235610961914e-01 -3.626009225845336914e-01
-1.824373453855514526e-01 3.715119361877441406e-01 -9.104340523481369019e-02
-6.642308831214904785e-01 3.421657085418701172e-01 2.411552518606185913e-01
-2.695035934448242188e-01 4.982410073280334473e-01 2.972791343927383423e-02
-6.796365976333618164e-01 1.429268270730972290e-01 -7.227259129285812378e-02
-1.865062415599822998e-01 1.713739782571792603e-01 -3.812794685363769531e-01
-6.424651145935058594e-01 4.151894152164459229e-02 -1.327082812786102295e-01
-4.479103088378906250e-01 1.494933217763900757e-01 -5.224548578262329102e-01
