-5.466481447219848633e-01 -3.497126698493957520e-02 3.268821537494659424e-01
3.988980352878570557e-01 -3.327419459819793701e-01 4.277923405170440674e-01
4.115934371948242188e-01 -4.496749341487884521e-01 -1.871678978204727173e-01
1.111242026090621948e-01 3.806917071342468262e-01 -6.442153453826904297e-01
-4.864337444305419922e-01 -1.873359829187393188e-01 4.229474067687988281e-01
5.155665874481201172e-01 1.441803872585296631e-01 -3.532069921493530273e-01
1.270210891962051392e-01 1.356574147939682007e-01 7.645468115806579590e-01
5.113969445228576660e-01 1.813758909702301025e-02 3.924352824687957764e-01
1.743437647819519043e-01 -1.168940588831901550e-01 -7.361611127853393555e-01
-1.656799763441085815e-02 -6.618416905403137207e-01 2.215561866760253906e-01
2.802920639514923096e-01 4.597572088241577148e-01 4.711608588695526123e-01
-4.307936504483222961e-02 -2.559163868427276611e-01 -7.227748036384582520e-01
-3.997981846332550049e-01 4.823357462882995605e-01 -1.699878424406051636e-01
2.947571277618408203e-01 -5.357019305229187012e-01 -2.681117057800292969e-01
1.728249192237854004e-01 -4.309352338314056396e-01 -5.570037961006164551e-01
3.603613376617431641e-02 -3.707941770553588867e-01 6.713985800743103027e-01
-1.784620285034179688e-01 -5.803827643394470215e-01 3.724987208843231201e-01
5.241828560829162598e-01 -1.448383480310440063e-01 3.093961477279663086e-01
-2.473105639219284058e-01 -5.392742753028869629e-01 3.883592188358306885e-01
5.258940458297729492e-01 2.670663893222808838e-01 2.106658667325973511e-01
1.546441614627838135e-01 -2.613615691661834717e-01 -6.915632486343383789e-01
-5.095324516296386719e-01 7.393247634172439575e-02 -3.833213746547698975e-01
2.205852568149566650e-01 -1.186644658446311951e-02 -7.283908724784851074e-01
-4.417712688446044922e-01 4.526658356189727783e-01 -6.347425282001495361e-02
-1.411887705326080322e-01 -6.303957700729370117e-01 -2.507348954677581787e-01
5.308670401573181152e-01 2.329392284154891968e-01 2.362667918205261230e-01
2.459511458873748779e-01 5.526823997497558594e-01 3.638498485088348389e-01
4.216646030545234680e-02 1.403695195913314819e-01 7.815766334533691406e-01
3.951551020145416260e-01 4.951047599315643311e-01 2.003115117549896240e-01
-6.149371340870857239e-02 -6.800673604011535645e-01 1.022389456629753113e-01
4.477039277553558350e-01 3.874587416648864746e-01 2.864928841590881348e-01
-4.378846287727355957e-01 -2.274198234081268311e-01 -4.581423401832580566e-01
-3.678998053073883057e-01 5.170579552650451660e-01 -1.666531413793563843e-01
-3.096392750740051270e-01 4.881084263324737549e-01 -3.665900230407714844e-01
-5.661622881889343262e-01 -7.727057486772537231e-02 2.460690587759017944e-01
7.075040042400360107e-02 -6.435691714286804199e-01 -2.415142655372619629e-01
2.288980036973953247e-01 -3.763843178749084473e-01 5.849357843399047852e-01
3.924123048782348633e-01 6.841333955526351929e-02 -5.842978954315185547e-01
2.366288155317306519e-01 -5.846512913703918457e-01 2.509900331497192383e-01
-6.767988204956054688e-03 6.063970327377319336e-01 -3.837705850601196289e-01
-5.158658027648925781e-01 7.660409063100814819e-02 3.978652656078338623e-01
-5.850312709808349609e-01 -1.034002304077148438e-01 -7.547226548194885254e-02
-1.044785603880882263e-01 -6.563451290130615234e-01 2.108888179063796997e-01
-2.101395428180694580e-01 -3.150948286056518555e-01 6.607775688171386719e-01
2.794600278139114380e-02 -6.494972109794616699e-01 -2.401519566774368286e-01
1.612668391317129135e-03 5.120584964752197266e-01 -5.320786237716674805e-01
-1.283478587865829468e-01 1.750674694776535034e-01 -7.391446232795715332e-01
-1.130727771669626236e-02 -4.553000330924987793e-01 6.014635562896728516e-01
1.298912335187196732e-02 -1.092951893806457520e-01 -7.729089856147766113e-01
3.361520767211914062e-01 5.156053900718688965e-01 3.004421889781951904e-01
1.510415971279144287e-01 -2.932330667972564697e-01 6.893897652626037598e-01
-3.183100521564483643e-01 5.111677050590515137e-01 3.296771347522735596e-01
-2.697737216949462891e-01 -4.847781360149383545e-01 -4.263289570808410645e-01
-5.211840271949768066e-01 2.076025903224945068e-01 3.061375617980957031e-01
-1.021294891834259033e-01 4.395948052406311035e-01 -5.911449790000915527e-01
2.235707193613052368e-01 5.939097404479980469e-01 -2.942476570606231689e-01
1.453127264976501465e-01 6.764612197875976562e-01 -3.713282942771911621e-02
5.518400669097900391e-01 -2.195422947406768799e-01 -4.267133027315139771e-02
5.657512545585632324e-01 -1.584364175796508789e-01 8.392310142517089844e-02
3.178772926330566406e-01 8.519633114337921143e-02 6.636046171188354492e-01
-2.221854180097579956e-01 -6.237726211547851562e-01 -1.638883948326110840e-01
4.134292006492614746e-01 3.384944200515747070e-01 -4.228071272373199463e-01
-4.683802723884582520e-01 -4.209014475345611572e-01 -1.013027131557464600e-01
3.472809195518493652e-01 2.920424751937389374e-02 -6.356102228164672852e-01
-4.812163859605789185e-02 6.303042173385620117e-01 3.345825970172882080e-01
1.357064247131347656e-01 -6.621499657630920410e-01 6.592144817113876343e-02
-2.271997556090354919e-02 7.451615482568740845e-02 -7.797242999076843262e-01
5.243612527847290039e-01 -4.997785389423370361e-02 -3.507547676563262939e-01
5.656460523605346680e-01 1.022236868739128113e-01 1.970958858728408813e-01
-2.035925686359405518e-01 -1.242679730057716370e-01 -7.202546596527099609e-01
3.509264588356018066e-01 -3.738194406032562256e-01 4.587821662425994873e-01
1.154198311269283295e-02 5.369770526885986328e-01 -4.997006356716156006e-01
5.481833219528198242e-01 2.640086114406585693e-01 6.114463508129119873e-02
3.512702286243438721e-01 -4.180357754230499268e-01 4.026676118373870850e-01
1.901315152645111084e-01 6.419661641120910645e-01 -1.844850927591323853e-01
-2.903535068035125732e-01 3.247395157814025879e-01 5.930554866790771484e-01
-4.364643394947052002e-01 1.511447038501501083e-02 -5.243573188781738281e-01
-1.046406775712966919e-01 6.821834444999694824e-01 -3.153147548437118530e-02
-2.768047749996185303e-01 -2.666804492473602295e-01 -6.204062700271606445e-01
4.564552307128906250e-01 3.321035206317901611e-01 -3.435100615024566650e-01
-2.656540572643280029e-01 1.953216344118118286e-01 6.839799880981445312e-01
-1.863033771514892578e-01 -1.138533577322959900e-01 -7.307470440864562988e-01
-4.564932584762573242e-01 -2.784842252731323242e-01 4.175868630409240723e-01
5.468354225158691406e-01 1.047011464834213257e-01 2.755874097347259521e-01
-1.276696026325225830e-01 4.218668639659881592e-01 -5.981876850128173828e-01
-1.896020174026489258e-01 6.374871730804443359e-01 1.851694136857986450e-01
-4.188390076160430908e-01 2.708570957183837891e-01 -4.529728889465332031e-01
3.127249777317047119e-01 -5.407203435897827148e-01 2.231821864843368530e-01
-4.443736672401428223e-01 4.297815561294555664e-01 -1.561196297407150269e-01
-4.726243317127227783e-01 -3.764748573303222656e-01 -2.130617797374725342e-01
3.111132085323333740e-01 4.506797194480895996e-01 -4.437526166439056396e-01
1.920349597930908203e-01 -6.000241637229919434e-01 -2.603490650653839111e-01
8.957291953265666962e-03 6.327302455902099609e-01 3.363577723503112793e-01
3.612302243709564209e-01 -4.301402717828750610e-02 -6.182936429977416992e-01
-2.903034687042236328e-01 -4.555979073047637939e-01 -4.440712928771972656e-01
-2.374664098024368286e-01 -2.609611675143241882e-02 -7.152987122535705566e-01
-3.358335047960281372e-02 1.529112309217453003e-01 -7.647008895874023438e-01
-3.686141222715377808e-02 -3.823676705360412598e-01 -6.455884575843811035e-01
1.965283155441284180e-01 5.658823847770690918e-01 3.897934854030609131e-01
-3.998414576053619385e-01 1.880411654710769653e-01 5.572227239608764648e-01
5.765724182128906250e-01 7.844457030296325684e-02 -1.460486501455307007e-01
-1.340263336896896362e-01 6.679036617279052734e-01 1.221815720200538635e-01
-3.022320941090583801e-02 4.534139037132263184e-01 -5.941280126571655273e-01
4.540879428386688232e-01 -4.091792106628417969e-01 -1.241770163178443909e-01
-3.059070706367492676e-01 5.861525535583496094e-01 9.567531198263168335e-02
-4.075298905372619629e-01 -5.095584988594055176e-01 1.342156250029802322e-02
2.590163350105285645e-01 -4.501027464866638184e-01 4.807852208614349365e-01
-3.681790232658386230e-01 -1.823795735836029053e-01 6.028785705566406250e-01
-5.669003129005432129e-01 1.528832912445068359e-01 -1.355348378419876099e-01
-3.628281950950622559e-01 5.063040852546691895e-01 -2.189701050519943237e-01
2.279675155878067017e-01 2.694558799266815186e-01 6.698945760726928711e-01
-4.581305980682373047e-01 2.904953062534332275e-01 -3.609823286533355713e-01
4.153142273426055908e-01 -4.729236066341400146e-01 -3.744396567344665527e-02
-1.744250357151031494e-01 3.675960302352905273e-01 6.397742629051208496e-01
2.146248370409011841e-01 -6.313375234603881836e-01 -4.454549401998519897e-02
3.588501811027526855e-01 -8.890509605407714844e-02 6.190930604934692383e-01
-3.843861520290374756e-01 3.358385562896728516e-01 -4.507800638675689697e-01
-4.640612602233886719e-01 3.857144713401794434e-01 2.231280654668807983e-01
-3.412053287029266357e-01 -2.642274200916290283e-01 5.912131071090698242e-01
-5.522997379302978516e-01 -2.647294998168945312e-01 -3.756420686841011047e-03
2.710757255554199219e-01 -2.990025281906127930e-01 6.107707023620605469e-01
2.081477046012878418e-01 6.013240218162536621e-01 -2.941611707210540771e-01
6.741143018007278442e-02 4.188829064369201660e-01 6.340367197990417480e-01
-1.453127115964889526e-01 -1.352341622114181519e-01 -7.423557043075561523e-01
-1.086006909608840942e-01 5.694755911827087402e-01 4.369591772556304932e-01
-3.123342394828796387e-01 -1.008115708827972412e-01 -6.530423164367675781e-01
5.618568509817123413e-02 4.580399692058563232e-01 5.995451807975769043e-01
2.576340138912200928e-01 -3.475560247898101807e-01 -5.751213431358337402e-01
-5.586006864905357361e-02 -6.596441864967346191e-01 2.240293174982070923e-01
-1.481508314609527588e-01 -1.674185097217559814e-01 7.541151642799377441e-01
-1.098959520459175110e-01 -9.233884513378143311e-02 7.815927267074584961e-01
5.430097579956054688e-01 2.077793031930923462e-01 -2.155444771051406860e-01
3.743198215961456299e-01 1.155110150575637817e-01 -5.971387624740600586e-01
-5.430902838706970215e-01 1.290046572685241699e-01 2.974432110786437988e-01
2.891992926597595215e-01 6.069074869155883789e-01 -9.531248360872268677e-02
2.436522096395492554e-01 -4.410771429538726807e-01 5.068824887275695801e-01
-3.666886687278747559e-01 -5.250211954116821289e-01 -1.694016754627227783e-01
1.718071103096008301e-01 5.756685882806777954e-02 -7.496774196624755859e-01
1.139440163969993591e-01 4.439876973628997803e-01 5.986328125000000000e-01
5.716196075081825256e-02 6.040292978286743164e-01 3.939728140830993652e-01
5.453257560729980469e-01 -1.317645609378814697e-01 -2.434028536081314087e-01
5.639429092407226562e-01 3.069456852972507477e-02 2.267933934926986694e-01
3.993384540081024170e-01 -3.418840467929840088e-01 -4.099396467208862305e-01
3.516676425933837891e-01 2.801379561424255371e-01 -5.539088845252990723e-01
-4.263622686266899109e-02 1.301985085010528564e-01 7.851461172103881836e-01
3.165229856967926025e-01 5.140815973281860352e-01 -3.364640474319458008e-01
-5.826525688171386719e-01 1.014396846294403076e-01 -7.805335521697998047e-02
-3.578676283359527588e-02 6.634495854377746582e-01 2.383678257465362549e-01
3.760879337787628174e-01 -6.747318804264068604e-02 6.041222810745239258e-01
6.660014390945434570e-02 4.245848655700683594e-01 -6.184918284416198730e-01
-4.236318171024322510e-01 -4.800983667373657227e-01 1.366244554519653320e-01
9.709358960390090942e-02 -4.799256026744842529e-01 5.545520782470703125e-01
5.864318013191223145e-01 7.083310186862945557e-02 3.953943774104118347e-02
-1.907684355974197388e-01 4.359619915485382080e-01 -5.519552826881408691e-01
4.757335782051086426e-01 -1.594718545675277710e-01 -4.184359014034271240e-01
5.024636983871459961e-01 1.696297973394393921e-01 -3.731884956359863281e-01
-1.786808967590332031e-01 6.591249704360961914e-01 -3.680330887436866760e-02
1.108691990375518799e-01 4.002901017665863037e-01 6.386017203330993652e-01
-2.060385346412658691e-01 6.445871591567993164e-01 -7.627367228269577026e-02
5.170664787292480469e-01 -2.344811856746673584e-01 -2.431991249322891235e-01
-8.676633238792419434e-02 -3.519299030303955078e-01 -6.602534055709838867e-01
5.658339262008666992e-01 -2.701853401958942413e-02 -2.127273231744766235e-01
-5.499235391616821289e-01 -2.200146205723285675e-03 -2.859058082103729248e-01
2.991023361682891846e-01 3.523528873920440674e-01 5.608686804771423340e-01
3.553212881088256836e-01 -3.143959939479827881e-01 5.106166601181030273e-01
3.351460397243499756e-02 6.148980855941772461e-01 -3.655610084533691406e-01
-4.827154576778411865e-01 3.400254249572753906e-01 -2.242006659507751465e-01
5.572039484977722168e-01 2.369151413440704346e-01 4.964067786931991577e-02
-5.497372150421142578e-01 2.498027384281158447e-01 -4.576438292860984802e-02
-2.713670432567596436e-01 5.035556554794311523e-01 4.132987260818481445e-01
-5.835020542144775391e-01 -1.314581632614135742e-01 7.808718830347061157e-02
4.367604255676269531e-01 -3.874816596508026123e-01 2.640660703182220459e-01
3.051142022013664246e-02 -5.877254009246826172e-01 4.141481816768646240e-01
5.450001955032348633e-01 -6.136377342045307159e-04 -2.985342144966125488e-01
-4.693293869495391846e-01 3.595896661281585693e-01 -2.341061681509017944e-01
-5.856057405471801758e-01 -6.243149936199188232e-02 1.399979144334793091e-01
3.278739750385284424e-01 -4.386444687843322754e-01 -4.000801444053649902e-01
-2.273184955120086670e-01 -6.203430891036987305e-01 1.958994567394256592e-01
-5.027706027030944824e-01 -2.809544801712036133e-01 -2.691477537155151367e-01
2.502180933952331543e-01 3.782836794853210449e-01 -5.762931704521179199e-01
-2.019872516393661499e-01 2.734641134738922119e-01 -6.670739054679870605e-01
1.304607391357421875e-01 6.270648837089538574e-01 -2.997858226299285889e-01
-4.310730099678039551e-01 1.325813084840774536e-01 -5.095717310905456543e-01
-2.525855004787445068e-01 -6.209005713462829590e-01 -9.475352615118026733e-02
-1.793042942881584167e-02 -1.193495281040668488e-02 8.000876903533935547e-01
1.296243816614151001e-01 -1.714210659265518188e-01 -7.375980019569396973e-01
2.671368420124053955e-01 4.918681979179382324e-01 -4.376332461833953857e-01
4.807482957839965820e-01 -3.783952295780181885e-01 6.304115802049636841e-02
-4.754960238933563232e-01 -3.967512845993041992e-01 -1.496709138154983521e-01
-8.554315194487571716e-03 -4.802233576774597168e-01 -5.548800230026245117e-01
1.955179572105407715e-01 5.915800929069519043e-01 -3.316740989685058594e-01
4.564563035964965820e-01 1.409276127815246582e-01 -4.776534438133239746e-01
1.058245673775672913e-01 -5.587406158447265625e-01 4.394864141941070557e-01
-1.001079007983207703e-01 -2.505119442939758301e-01 -7.154681682586669922e-01
3.971244990825653076e-01 -1.008890941739082336e-01 -5.661278963088989258e-01
5.220017433166503906e-01 1.005975529551506042e-01 -3.531889319419860840e-01
-4.154544770717620850e-01 4.894085228443145752e-01 -1.490560825914144516e-02
3.888443708419799805e-01 4.338745772838592529e-01 -3.474645614624023438e-01
3.339753150939941406e-01 5.517992973327636719e-01 2.074592858552932739e-01
4.926228895783424377e-02 6.605437397956848145e-01 -2.396716624498367310e-01
4.884773790836334229e-01 -3.681311309337615967e-01 -1.952460780739784241e-02
-8.345397561788558960e-02 3.295139968395233154e-01 -6.818078160285949707e-01
4.799996912479400635e-01 -3.758320808410644531e-01 -8.489549160003662109e-02
4.628200083971023560e-02 -3.690241873264312744e-01 -6.537150144577026367e-01
-5.945571660995483398e-01 -1.365459151566028595e-02 1.387360319495201111e-02
2.513853013515472412e-01 2.303196489810943604e-01 -6.662878394126892090e-01
-2.657905220985412598e-01 4.046601653099060059e-01 5.456647276878356934e-01
3.820780217647552490e-01 7.626520097255706787e-02 5.996302366256713867e-01
-6.971839815378189087e-02 -6.713724136352539062e-01 -1.376076489686965942e-01
1.829400807619094849e-01 -6.244145035743713379e-01 2.039127051830291748e-01
1.112790033221244812e-01 6.179242134094238281e-01 -3.345577716827392578e-01
2.333067357540130615e-01 6.428843140602111816e-01 4.743595048785209656e-02
-4.271017014980316162e-01 -3.189799189567565918e-01 4.350521862506866455e-01
-1.348494179546833038e-02 1.731444895267486572e-01 -7.606851458549499512e-01
4.268131256103515625e-01 4.450966417789459229e-01 2.319865673780441284e-01
2.921218872070312500e-01 -5.533379912376403809e-01 -2.224269062280654907e-01
3.717439994215965271e-02 -3.453199863433837891e-01 6.892674565315246582e-01
-6.725957989692687988e-02 4.013443738222122192e-02 -7.776604294776916504e-01
-5.146586522459983826e-02 -6.845483183860778809e-01 5.199314653873443604e-02
-2.499750116840004921e-03 6.196634173393249512e-01 3.670914471149444580e-01
1.687033027410507202e-01 3.446845412254333496e-01 -6.490446329116821289e-01
5.876482129096984863e-01 9.476966224610805511e-04 4.594286903738975525e-02
3.495937883853912354e-01 5.552368760108947754e-01 1.385419666767120361e-01
-4.220881164073944092e-01 -3.470824956893920898e-01 -3.838940262794494629e-01
-4.807511866092681885e-01 3.550468385219573975e-01 -2.008912563323974609e-01
-6.325519084930419922e-02 1.903395056724548340e-01 -7.502386569976806641e-01
2.461212873458862305e-01 -2.126795649528503418e-01 -6.663819551467895508e-01
1.153901815414428711e-01 6.842347383499145508e-01 -2.625968307256698608e-02
6.291077286005020142e-02 1.754830181598663330e-01 7.694742679595947266e-01
-2.228645086288452148e-01 -6.394857168197631836e-01 -5.663426220417022705e-02
2.261547893285751343e-01 3.147681951522827148e-01 6.451992392539978027e-01
-6.190738081932067871e-02 -4.172608256340026855e-01 6.343719959259033203e-01
-3.548076748847961426e-01 -5.592943429946899414e-01 3.746505826711654663e-02
-5.811572670936584473e-01 -1.502178758382797241e-01 6.302367150783538818e-02
6.179042160511016846e-02 1.551075279712677002e-01 7.752941250801086426e-01
8.818382024765014648e-02 6.448919773101806641e-01 -2.749565243721008301e-01
5.372601747512817383e-01 -2.531730532646179199e-01 9.213855117559432983e-02
4.578911662101745605e-01 -4.987629503011703491e-02 -4.898591637611389160e-01
5.431412458419799805e-01 2.766678929328918457e-01 -7.375818490982055664e-02
-1.402175612747669220e-02 6.918947100639343262e-01 8.514461666345596313e-02
3.614987805485725403e-02 -6.820132136344909668e-01 -5.221819877624511719e-02
5.468483567237854004e-01 2.082110792398452759e-01 -1.968438923358917236e-01
3.298027515411376953e-01 -1.190804988145828247e-01 -6.339338421821594238e-01
-3.615876734256744385e-01 -5.469853281974792480e-01 1.145652234554290771e-01
-4.698163568973541260e-01 3.384474217891693115e-01 2.965959012508392334e-01
-5.017984509468078613e-01 2.754144072532653809e-01 2.901523113250732422e-01
1.014667302370071411e-01 1.864939182996749878e-01 7.580722570419311523e-01
5.061631202697753906e-01 -2.457075864076614380e-01 2.709139287471771240e-01
-1.484443396329879761e-01 5.094785094261169434e-01 -4.919363558292388916e-01
5.187617540359497070e-01 -1.490357965230941772e-01 3.228761553764343262e-01
1.221991181373596191e-01 -4.652612805366516113e-01 -5.450505018234252930e-01
-3.612592518329620361e-01 5.307825803756713867e-01 1.575802564620971680e-01
-5.069974660873413086e-01 3.979407995939254761e-02 -3.960722982883453369e-01
3.288546502590179443e-01 -2.735063433647155762e-01 -5.639364123344421387e-01
-2.877272665500640869e-01 -3.039421439170837402e-01 -5.889763236045837402e-01
6.469941139221191406e-02 -2.316252887248992920e-01 -7.304623723030090332e-01
5.375601649284362793e-01 2.719446122646331787e-01 -1.396464556455612183e-01
-3.929417431354522705e-01 -7.428342849016189575e-02 6.043434143066406250e-01
-1.904493123292922974e-01 5.754070878028869629e-01 3.685318231582641602e-01
1.415015477687120438e-02 5.239232778549194336e-01 -5.171597599983215332e-01
-4.859823286533355713e-01 -6.979792565107345581e-02 -4.365237057209014893e-01
4.623405039310455322e-01 -2.980110645294189453e-01 3.344757854938507080e-01
3.918028175830841064e-01 -1.058074180036783218e-02 -5.873100757598876953e-01
-4.151171445846557617e-01 -4.580873847007751465e-01 2.477648109197616577e-01
-3.429661691188812256e-01 5.614911317825317383e-01 -1.404833700507879257e-02
-1.425976157188415527e-01 4.638181328773498535e-01 5.663490295410156250e-01
1.580635309219360352e-01 -4.927733540534973145e-02 7.654205560684204102e-01
-8.969701081514358521e-02 6.795630455017089844e-01 1.154771596193313599e-01
-4.789122939109802246e-01 3.343181908130645752e-01 2.749753594398498535e-01
-1.719051897525787354e-01 -1.419101469218730927e-02 -7.485858201980590820e-01
-2.236788123846054077e-01 -6.265950798988342285e-01 -1.468409001827239990e-01
6.500548124313354492e-02 6.789002418518066406e-01 1.624559462070465088e-01
3.855856955051422119e-01 2.032046616077423096e-01 5.585765838623046875e-01
-3.457651734352111816e-01 -1.285813003778457642e-01 -6.161828637123107910e-01
-1.897473931312561035e-01 2.776258289813995361e-01 6.907005906105041504e-01
-1.476980596780776978e-01 -6.686288714408874512e-01 4.197587445378303528e-02
4.968935847282409668e-01 2.942872047424316406e-01 -2.810672819614410400e-01
-5.586580038070678711e-01 1.104706060141324997e-02 2.868345081806182861e-01
4.353797137737274170e-01 3.236875832080841064e-01 3.984775543212890625e-01
-2.029262483119964600e-01 6.429836153984069824e-01 1.191734373569488525e-01
-2.893466651439666748e-01 -5.966246724128723145e-01 1.434049159288406372e-01
4.258856475353240967e-01 3.338820934295654297e-01 -4.052168130874633789e-01
4.650948941707611084e-01 -3.387587666511535645e-01 -2.616147994995117188e-01
2.768711447715759277e-01 -5.153758525848388672e-01 -3.445231914520263672e-01
1.353397667407989502e-01 -4.362024068832397461e-01 5.858682394027709961e-01
4.675565063953399658e-01 2.322766035795211792e-01 4.121129810810089111e-01
-5.377585291862487793e-01 1.559146344661712646e-01 2.966451644897460938e-01
-3.258373439311981201e-01 -1.816990077495574951e-01 6.449416279792785645e-01
-2.949898242950439453e-01 3.922424912452697754e-01 -5.088611245155334473e-01
-4.162439703941345215e-01 3.758857548236846924e-01 3.734056949615478516e-01
9.403506666421890259e-02 6.170641779899597168e-01 -3.448187410831451416e-01
4.270682036876678467e-01 -4.283799827098846436e-01 -1.914257854223251343e-01
1.914534419775009155e-01 9.351664222776889801e-03 -7.432039380073547363e-01
9.124881774187088013e-02 -6.502416133880615234e-01 2.200899720191955566e-01
-1.002721339464187622e-01 -4.525508284568786621e-01 -5.710638761520385742e-01
-2.075112909078598022e-01 -6.489353775978088379e-01 1.729690656065940857e-02
2.859824895858764648e-01 -4.252608716487884521e-01 4.823060333728790283e-01
4.593999981880187988e-01 -3.155909180641174316e-01 3.192371428012847900e-01
1.075523942708969116e-01 3.452621698379516602e-01 6.801947951316833496e-01
-2.036198377609252930e-01 4.867354035377502441e-01 5.027745962142944336e-01
-3.093620836734771729e-01 2.521443963050842285e-01 6.228784918785095215e-01
-4.557445645332336426e-01 -3.157825022935867310e-02 -4.944151937961578369e-01
-1.178660020232200623e-01 -6.708145141601562500e-01 -8.581362664699554443e-02
3.038112819194793701e-01 4.490255713462829590e-01 4.581968486309051514e-01
1.566328108310699463e-01 3.587120771408081055e-01 6.531275510787963867e-01
8.082888275384902954e-02 4.684408605098724365e-01 5.837416052818298340e-01
-2.366425693035125732e-01 5.707012414932250977e-01 -3.072609007358551025e-01
-9.250628203153610229e-02 5.455201864242553711e-01 4.823192358016967773e-01
-1.523459516465663910e-02 3.723804056644439697e-01 6.771383285522460938e-01
3.821996450424194336e-01 -4.666460752487182617e-01 2.459072768688201904e-01
5.237410664558410645e-01 4.450874775648117065e-02 3.602425158023834229e-01
1.797157824039459229e-01 -3.787366747856140137e-01 6.154340505599975586e-01
-1.808452606201171875e-02 2.703562974929809570e-01 -7.237510085105895996e-01
-4.921491146087646484e-01 1.679945737123489380e-01 -3.832034766674041748e-01
-2.961155772209167480e-01 5.974979400634765625e-01 -1.100066397339105606e-02
-2.158144116401672363e-01 -2.171083986759185791e-01 7.082187533378601074e-01
-3.443314433097839355e-01 2.220489084720611572e-01 -5.809543132781982422e-01
-3.709024488925933838e-01 9.143885970115661621e-02 6.235434412956237793e-01
4.075812101364135742e-01 2.321391832083463669e-03 5.726073980331420898e-01
3.872251212596893311e-01 5.246015191078186035e-01 1.122478097677230835e-01
5.528790950775146484e-01 2.208926677703857422e-01 -1.424107849597930908e-01
-4.519056081771850586e-01 1.413459330797195435e-01 5.013217926025390625e-01
-2.619573771953582764e-01 -5.689983963966369629e-01 3.047432601451873779e-01
-3.975338861346244812e-02 4.099274873733520508e-01 -6.321596503257751465e-01
3.908307850360870361e-01 -4.885643422603607178e-01 -1.290578097105026245e-01
1.977514922618865967e-01 -2.159634977579116821e-01 -6.932069063186645508e-01
3.178223073482513428e-01 -5.479531884193420410e-01 1.809692233800888062e-01
-3.633662760257720947e-01 -5.522018074989318848e-01 2.739769965410232544e-02
-4.886811971664428711e-02 6.605442762374877930e-01 -2.319218516349792480e-01
-2.153927683830261230e-01 -2.742088139057159424e-01 6.817438006401062012e-01
3.653728067874908447e-01 -5.272594690322875977e-01 -1.337144616991281509e-02
-5.246081352233886719e-01 2.710697650909423828e-01 -1.784752905368804932e-01
4.620003402233123779e-01 -1.561883538961410522e-01 -4.468866288661956787e-01
5.137155055999755859e-01 3.352397084236145020e-01 1.273875683546066284e-01
-5.564344525337219238e-01 1.409841179847717285e-01 -2.054118812084197998e-01
-1.940585374832153320e-01 4.300172328948974609e-01 5.740267038345336914e-01
-1.353988349437713623e-01 2.506414949893951416e-01 7.262924313545227051e-01
1.968360096216201782e-01 -5.098405480384826660e-01 -4.422616660594940186e-01
-3.157583773136138916e-01 -3.286351859569549561e-01 5.731742978096008301e-01
4.546515047550201416e-01 -3.384461998939514160e-01 2.987402379512786865e-01
-5.764498114585876465e-01 6.620449572801589966e-02 -1.581662297248840332e-01
4.068334698677062988e-01 3.305645287036895752e-01 4.431088268756866455e-01
-2.463069558143615723e-01 5.469597578048706055e-01 3.650073707103729248e-01
-5.914120674133300781e-01 -7.889604568481445312e-02 3.687995672225952148e-02
4.255527555942535400e-01 4.593029618263244629e-01 1.984511911869049072e-01
-1.994823291897773743e-02 2.811452746391296387e-01 7.327048182487487793e-01
-4.929575622081756592e-01 -2.526404559612274170e-01 -3.275026082992553711e-01
-2.377621829509735107e-01 4.764490127563476562e-01 4.882038831710815430e-01
8.076819032430648804e-02 -5.712220668792724609e-01 4.290839135646820068e-01
1.343895494937896729e-01 1.189446002244949341e-01 7.656728029251098633e-01
-5.939344763755798340e-01 -3.747570514678955078e-02 3.519994392991065979e-02
1.237204857170581818e-02 6.897742748260498047e-01 -1.004272773861885071e-01
1.290840208530426025e-01 6.636953949928283691e-01 1.804475039243698120e-01
-3.370677232742309570e-01 5.648817420005798340e-01 6.458724290132522583e-02
-5.257835388183593750e-01 -3.303489685058593750e-01 -1.596762612462043762e-02
-1.060631051659584045e-01 -4.859897792339324951e-01 -5.323666930198669434e-01
1.654066145420074463e-01 -2.705278694629669189e-01 6.954841017723083496e-01
4.604978486895561218e-02 -5.977483391761779785e-01 3.902072608470916748e-01
-8.751320838928222656e-02 2.660128753632307053e-03 -7.749286293983459473e-01
-3.120297566056251526e-02 3.786403834819793701e-01 6.716100573539733887e-01
-4.864973127841949463e-01 1.572499424219131470e-02 -4.407765865325927734e-01
5.358421057462692261e-02 -1.009738668799400330e-01 7.866766452789306641e-01
7.852471619844436646e-02 -3.908752501010894775e-01 -6.306496858596801758e-01
1.539917141199111938e-01 -3.914220035076141357e-01 -6.039568781852722168e-01
2.713711559772491455e-01 -1.007415428757667542e-01 6.946660876274108887e-01
5.671600103378295898e-01 -5.220911465585231781e-03 2.106809616088867188e-01
4.273143708705902100e-01 1.102180313318967819e-02 -5.422790050506591797e-01
-6.538812816143035889e-02 6.689253449440002441e-01 2.017022520303726196e-01
1.485025733709335327e-01 -5.778855085372924805e-01 -3.596633076667785645e-01
-4.782148301601409912e-01 -3.251209259033203125e-01 -2.832635343074798584e-01
5.524880290031433105e-01 -2.722124941647052765e-02 -2.684598267078399658e-01
1.734953075647354126e-01 6.070750355720520020e-01 3.222194910049438477e-01
1.890685856342315674e-01 2.268411070108413696e-01 7.111046314239501953e-01
2.715967595577239990e-01 5.638098716735839844e-01 3.044762313365936279e-01
-1.074929460883140564e-01 4.050063192844390869e-01 -6.203402876853942871e-01
-4.758428931236267090e-01 3.765552639961242676e-01 -1.693550795316696167e-01
1.788841933012008667e-01 5.530795454978942871e-02 7.572948932647705078e-01
-2.265578210353851318e-01 -3.651459217071533203e-01 -5.903898477554321289e-01
-3.552267253398895264e-01 5.502181649208068848e-01 -2.819285169243812561e-02
4.151963889598846436e-01 -4.716702401638031006e-01 6.281889230012893677e-02
-2.713174819946289062e-01 1.461400240659713745e-01 -6.740275621414184570e-01
5.712884664535522461e-01 -1.431545615196228027e-01 -4.843959584832191467e-02
2.074090093374252319e-01 6.550362706184387207e-01 -3.389269486069679260e-02
-4.332867264747619629e-01 -4.664905071258544922e-01 -1.137291714549064636e-01
-5.358119606971740723e-01 2.109866961836814880e-02 -3.269178867340087891e-01
-2.016945779323577881e-01 -2.835429012775421143e-01 -6.598939299583435059e-01
3.418847322463989258e-01 -4.905488491058349609e-01 -2.805831730365753174e-01
-2.907184362411499023e-01 -4.871568083763122559e-01 -3.988079726696014404e-01
5.203195810317993164e-01 3.385217487812042236e-01 3.773498907685279846e-02
4.107177257537841797e-01 -4.231712818145751953e-01 -2.593851983547210693e-01
3.099180161952972412e-01 -3.359265029430389404e-01 -5.366010069847106934e-01
-2.451856136322021484e-01 3.385632932186126709e-01 6.190129518508911133e-01
-1.541207432746887207e-01 4.443370997905731201e-01 5.814833641052246094e-01
-1.462383568286895752e-01 6.673439741134643555e-01 -7.992793619632720947e-02
-4.796255826950073242e-01 -3.771742880344390869e-01 -1.841172128915786743e-01
-5.321637988090515137e-01 -1.653997600078582764e-01 3.212616443634033203e-01
9.010993689298629761e-02 -6.541298031806945801e-01 -1.862269341945648193e-01
2.472780346870422363e-01 -5.862304568290710449e-01 -2.110563516616821289e-01
5.391027331352233887e-01 -1.487283259630203247e-01 2.551253736019134521e-01
5.361682772636413574e-01 -6.834327243268489838e-03 -3.254051208496093750e-01
-5.333814620971679688e-01 2.738056480884552002e-01 1.506571918725967407e-01
2.437033504247665405e-01 -4.808256924152374268e-01 -4.425145089626312256e-01
-3.902267813682556152e-01 3.159550130367279053e-01 -4.603469073772430420e-01
-4.235633611679077148e-01 -1.508001089096069336e-01 5.463851690292358398e-01
-5.317623615264892578e-01 -2.088111042976379395e-01 -2.544122636318206787e-01
2.957350611686706543e-01 5.029298663139343262e-01 -3.869313597679138184e-01
-4.551386535167694092e-01 -1.349022835493087769e-01 5.042403340339660645e-01
3.203573822975158691e-01 5.019180774688720703e-01 -3.531458377838134766e-01
1.021562144160270691e-01 -3.247107863426208496e-01 6.883730888366699219e-01
8.224967867136001587e-02 6.241102814674377441e-01 -3.330459892749786377e-01
4.272330403327941895e-01 9.464744478464126587e-02 -5.350393056869506836e-01
-7.821778953075408936e-02 -6.653395295143127441e-01 -1.646634489297866821e-01
-1.526279561221599579e-02 -2.642793357372283936e-01 7.390578985214233398e-01
5.160245895385742188e-01 -5.382047593593597412e-02 -3.713184893131256104e-01
4.878849685192108154e-01 -2.424286156892776489e-01 -3.265509903430938721e-01
4.912473559379577637e-01 3.491800725460052490e-01 -2.120286524295806885e-01
-2.861296534538269043e-01 5.521860122680664062e-01 2.925661802291870117e-01
2.444918304681777954e-01 5.247043371200561523e-01 -4.108991622924804688e-01
-7.694610953330993652e-02 -3.848130404949188232e-01 6.590221524238586426e-01
1.419654041528701782e-01 -6.359475255012512207e-01 2.207168340682983398e-01
-2.760863602161407471e-01 -2.000981420278549194e-01 6.778261065483093262e-01
4.995860755443572998e-01 3.734357059001922607e-01 8.914276957511901855e-02
-3.512754440307617188e-01 5.037126541137695312e-01 2.785101532936096191e-01
2.164874523878097534e-01 -5.872905850410461426e-01 -2.627644538879394531e-01
4.161561131477355957e-01 -9.971074759960174561e-02 5.461496114730834961e-01
-2.207923680543899536e-01 4.700907170772552490e-01 -4.919902384281158447e-01
4.942663386464118958e-02 5.389367341995239258e-01 5.046281218528747559e-01
-5.555332303047180176e-01 -1.972375959157943726e-01 -1.662302911281585693e-01
1.935022622346878052e-01 5.575230717658996582e-01 4.077713489532470703e-01
3.914185613393783569e-02 -4.041462242603302002e-01 -6.266198158264160156e-01
-1.716756522655487061e-01 6.435648202896118164e-01 1.902815103530883789e-01
-4.433867633342742920e-01 2.826285958290100098e-01 -3.992979228496551514e-01
3.155294358730316162e-01 -1.702418178319931030e-01 6.382450461387634277e-01
-4.104721844196319580e-01 -4.685869514942169189e-01 2.345573455095291138e-01
-1.131158322095870972e-01 -3.137249946594238281e-01 7.000435590744018555e-01
1.053921282291412354e-01 5.621316432952880859e-01 -4.453564882278442383e-01
5.439570546150207520e-01 -1.390790045261383057e-01 2.441238462924957275e-01
3.870171010494232178e-01 1.381098031997680664e-01 5.806429982185363770e-01
3.204416930675506592e-01 -5.101604461669921875e-01 2.907095849514007568e-01
-5.478773117065429688e-01 1.758967041969299316e-01 -2.092681974172592163e-01
-5.182412266731262207e-01 -3.059200346469879150e-01 -1.701036989688873291e-01
3.893274664878845215e-01 -4.297616779804229736e-01 -3.010653555393218994e-01
-3.328723013401031494e-01 5.000373125076293945e-01 -3.044081926345825195e-01
7.189072202891111374e-04 -6.274653673171997070e-01 3.307964205741882324e-01
-4.566391706466674805e-01 -4.287251532077789307e-01 1.720506995916366577e-01
-3.985927402973175049e-01 4.479724168777465820e-01 -2.660135030746459961e-01
-3.457497060298919678e-01 -4.537270367145538330e-01 4.031970500946044922e-01
-4.993872940540313721e-01 -5.321013927459716797e-02 4.431279003620147705e-01
4.236220568418502808e-02 6.888898015022277832e-01 1.085748821496963501e-01
-5.196233391761779785e-01 -2.089738696813583374e-01 -2.933722734451293945e-01
5.715516805648803711e-01 1.526345461606979370e-01 1.113681793212890625e-01
4.828835129737854004e-01 -3.755451440811157227e-01 -5.094556137919425964e-02
-2.783644199371337891e-01 -5.586462020874023438e-01 -2.769069373607635498e-01
-6.220523267984390259e-02 -6.740871667861938477e-01 1.486070305109024048e-01
-5.502959489822387695e-01 2.238020598888397217e-01 1.541783362627029419e-01
4.014011323451995850e-01 -4.757723808288574219e-01 -1.338033527135848999e-01
-8.379796892404556274e-02 5.363045930862426758e-01 4.987809956073760986e-01
4.618923962116241455e-01 -3.665742278099060059e-01 2.224081903696060181e-01
-2.298842966556549072e-01 -5.480915307998657227e-01 -3.634009957313537598e-01
2.882000207901000977e-01 -5.292274951934814453e-01 -2.965164780616760254e-01
-3.678462207317352295e-01 3.672644495964050293e-01 4.673498272895812988e-01
2.637375593185424805e-01 -4.077327251434326172e-01 5.251863598823547363e-01
-4.854622185230255127e-01 3.893312811851501465e-01 7.328170537948608398e-02
3.345972597599029541e-01 4.717314243316650391e-01 -3.819429278373718262e-01
-1.744948476552963257e-01 -5.298664569854736328e-01 4.658105075359344482e-01
-4.127314984798431396e-01 4.036864638328552246e-01 3.389162123203277588e-01
-5.729860663414001465e-01 -3.233907371759414673e-02 -1.940211206674575806e-01
-1.912064701318740845e-01 -3.337635397911071777e-01 6.583614945411682129e-01
2.297359406948089600e-01 4.082660377025604248e-01 -5.649330615997314453e-01
2.771768569946289062e-01 5.158532261848449707e-01 -3.889656662940979004e-01
1.853904128074645996e-01 1.265544444322586060e-01 -7.341961264610290527e-01
3.046123683452606201e-01 -1.028293073177337646e-01 -6.600436568260192871e-01
-8.962111920118331909e-02 -1.537421196699142456e-01 -7.531495690345764160e-01
5.193834900856018066e-01 -2.915893197059631348e-01 -1.141147539019584656e-01
-4.104655236005783081e-02 9.346686303615570068e-02 -7.757206559181213379e-01
5.628933906555175781e-01 -1.364082396030426025e-01 -1.493756771087646484e-01
5.751285552978515625e-01 -2.551573142409324646e-02 1.617605835199356079e-01
-3.054192960262298584e-01 -5.965552330017089844e-01 -4.682358354330062866e-03
-4.000884294509887695e-01 -5.164312720298767090e-01 -2.018863335251808167e-02
-4.302621185779571533e-01 3.308532536029815674e-01 4.018330276012420654e-01
-3.392050508409738541e-03 -6.029915809631347656e-01 -3.674357235431671143e-01
-4.679922759532928467e-01 3.906992375850677490e-01 1.928764134645462036e-01
-3.966677188873291016e-01 4.772875010967254639e-01 2.217033058404922485e-01
-5.876455307006835938e-01 -9.766179323196411133e-02 -4.975208640098571777e-02
2.603803575038909912e-01 -4.580636024475097656e-01 4.690099656581878662e-01
-2.651093006134033203e-01 4.301057457923889160e-01 5.193559527397155762e-01
-5.918710231781005859e-01 -6.252433359622955322e-02 -2.860021591186523438e-02
1.176586151123046875e-01 4.287952780723571777e-01 -6.024620532989501953e-01
-4.411005675792694092e-01 -1.799351423978805542e-01 5.086792111396789551e-01
4.972383677959442139e-01 -3.240892291069030762e-01 -1.613373309373855591e-01
2.271317839622497559e-01 -2.197517305612564087e-01 6.862850785255432129e-01
-2.766180038452148438e-01 4.173539280891418457e-01 5.224015116691589355e-01
7.559112273156642914e-03 1.306183338165283203e-01 -7.715977430343627930e-01
4.135765433311462402e-01 -2.851313352584838867e-01 -4.426430165767669678e-01
-5.893691778182983398e-01 -9.482672065496444702e-02 -2.146937325596809387e-02
-1.098032947629690170e-02 -5.160124897956848145e-01 5.314428806304931641e-01
-5.628603100776672363e-01 -1.210995987057685852e-01 2.378901392221450806e-01
-4.417334496974945068e-01 -8.024185895919799805e-02 -5.099188089370727539e-01
-3.578104674816131592e-01 -4.388506114482879639e-01 -3.769155740737915039e-01
1.653406396508216858e-02 -6.334657669067382812e-01 3.124227225780487061e-01
-3.432494103908538818e-01 -5.481445193290710449e-01 -1.597253978252410889e-01
-1.484765112400054932e-01 4.283171147108078003e-02 7.763714790344238281e-01
5.301853418350219727e-01 2.859996631741523743e-02 -3.435815870761871338e-01
-3.629220128059387207e-01 4.561755657196044922e-01 -3.303489983081817627e-01
4.791844785213470459e-01 -3.682753145694732666e-01 1.319904923439025879e-01
4.392740428447723389e-01 -2.786088883876800537e-01 4.073162078857421875e-01
4.226306974887847900e-01 -2.963703274726867676e-01 -4.162921309471130371e-01
-1.203784346580505371e-01 3.559063673019409180e-01 6.702479124069213867e-01
4.647558089345693588e-03 3.574740290641784668e-01 6.878212094306945801e-01
2.032807767391204834e-01 1.430446282029151917e-04 -7.375649809837341309e-01
-5.314294695854187012e-01 -3.073849678039550781e-01 -7.955403625965118408e-02
3.801164925098419189e-01 -4.629493951797485352e-01 -2.526142597198486328e-01
-2.219379693269729614e-02 -6.717047095298767090e-01 -1.532913446426391602e-01
-1.608821600675582886e-01 1.413835883140563965e-01 7.560400962829589844e-01
-4.812128469347953796e-02 2.406587004661560059e-01 -7.339963316917419434e-01
-3.790434598922729492e-01 -1.489451229572296143e-01 -5.747340321540832520e-01
4.797943532466888428e-01 3.562913239002227783e-01 2.410491704940795898e-01
-4.510077238082885742e-01 4.433422982692718506e-01 -3.146954253315925598e-02
3.368930816650390625e-01 4.988205730915069580e-01 3.336179554462432861e-01
-3.163838982582092285e-01 -5.516240000724792480e-01 -2.221926599740982056e-01
-2.799233198165893555e-01 6.030774116516113281e-01 -8.405503630638122559e-02
1.525160372257232666e-01 -4.142756462097167969e-01 5.987500548362731934e-01
5.267171263694763184e-01 3.206642270088195801e-01 -6.563904136419296265e-02
-3.158313930034637451e-01 5.263218879699707031e-01 3.001724481582641602e-01
-3.486696481704711914e-01 -4.366032481193542480e-01 -3.942809104919433594e-01
5.778706073760986328e-01 9.036651253700256348e-02 -1.287306398153305054e-01
1.764772925525903702e-03 -6.436647176742553711e-01 -2.640802562236785889e-01
3.236017823219299316e-01 4.647611081600189209e-01 4.113456904888153076e-01
1.380348652601242065e-01 6.434794664382934570e-01 -2.447054237127304077e-01
-1.663855612277984619e-01 -5.980144739151000977e-01 -3.174099326133728027e-01
2.057232111692428589e-01 6.128888577222824097e-02 -7.343289256095886230e-01
6.413795799016952515e-02 4.685178995132446289e-01 5.873597264289855957e-01
2.440390288829803467e-01 -3.143904209136962891e-01 6.218218803405761719e-01
4.946833550930023193e-01 -3.196859955787658691e-01 -1.856539100408554077e-01
3.898509219288825989e-02 -1.898598074913024902e-01 7.660185694694519043e-01
-2.728299200534820557e-01 -4.365701675415039062e-01 -4.853211641311645508e-01
-3.579129278659820557e-01 5.213783681392669678e-02 -6.175908446311950684e-01
3.792282938957214355e-01 5.003302097320556641e-01 2.353446036577224731e-01
2.610431313514709473e-01 -3.854560554027557373e-01 5.500460863113403320e-01
-5.742912292480468750e-01 1.091321930289268494e-01 1.702513396739959717e-01
-8.909647911787033081e-02 -1.607255339622497559e-01 7.710511684417724609e-01
-1.307222992181777954e-01 6.752227544784545898e-01 5.176540464162826538e-02
1.320362538099288940e-01 -1.122682169079780579e-01 7.655295729637145996e-01
4.630131125450134277e-01 1.277025043964385986e-02 -4.872675538063049316e-01
5.114203095436096191e-01 -2.786008119583129883e-01 -1.949657946825027466e-01
-1.382711231708526611e-01 -3.404249548912048340e-01 6.756805777549743652e-01
-4.011721014976501465e-01 3.845914900302886963e-01 3.913788795471191406e-01
-2.731021940708160400e-01 4.606411159038543701e-01 -4.541643857955932617e-01
2.065160870552062988e-01 2.167422473430633545e-01 -6.978744864463806152e-01
-4.239950478076934814e-01 4.670060575008392334e-01 -1.149071604013442993e-01
5.634781718254089355e-01 2.182558178901672363e-01 1.445457153022289276e-02
-2.308078706264495850e-01 2.879574000835418701e-01 6.620129942893981934e-01
-4.093588292598724365e-01 -4.819780588150024414e-01 -1.657799631357192993e-01
-2.964375913143157959e-01 4.566192924976348877e-01 4.533729255199432373e-01
4.587923735380172729e-02 -7.297127693891525269e-02 -7.768473625183105469e-01
-4.187561273574829102e-01 3.882326781749725342e-01 -3.249292969703674316e-01
-5.807106494903564453e-01 8.855829387903213501e-02 -1.121522188186645508e-01
3.721088469028472900e-01 2.632142901420593262e-01 -5.405542850494384766e-01
-3.544490635395050049e-01 -2.175873368978500366e-01 6.022704243659973145e-01
5.416765213012695312e-01 -2.159280702471733093e-03 3.093495965003967285e-01
-2.162585780024528503e-02 5.402959585189819336e-01 5.055726766586303711e-01
5.743806958198547363e-01 -6.133503466844558716e-02 -1.482716500759124756e-01
6.036473065614700317e-02 -4.266470670700073242e-01 6.206843256950378418e-01
-5.372052788734436035e-01 1.402344405651092529e-01 -2.793818116188049316e-01
-4.133521616458892822e-01 -3.596564829349517822e-01 4.162580668926239014e-01
-4.956046119332313538e-02 5.678054690361022949e-01 4.596326351165771484e-01
2.662016153335571289e-01 2.143242508172988892e-01 -6.628348827362060547e-01
-5.337905883789062500e-01 1.554782539606094360e-01 -2.799932062625885010e-01
3.490435481071472168e-01 2.959026396274566650e-01 -5.465886592864990234e-01
1.492795497179031372e-01 -2.514400780200958252e-01 7.121816277503967285e-01
-5.116482377052307129e-01 -3.240318000316619873e-01 -1.629246771335601807e-01
-2.906088829040527344e-01 -8.014398068189620972e-02 6.990126967430114746e-01
-3.762651085853576660e-01 4.267672598361968994e-01 3.769105076789855957e-01
4.487133920192718506e-01 2.863036096096038818e-01 -4.069089889526367188e-01
5.694854259490966797e-01 8.361662179231643677e-02 1.861997991800308228e-01
3.974767327308654785e-01 -5.282624065876007080e-02 5.807616710662841797e-01
-2.055498510599136353e-01 -6.172319054603576660e-01 2.458687573671340942e-01
-9.146684408187866211e-02 6.398559808731079102e-01 2.892898917198181152e-01
1.686432510614395142e-01 4.881739914417266846e-01 5.261642932891845703e-01
5.539957806468009949e-02 6.374205350875854492e-01 -3.080785870552062988e-01
3.231744095683097839e-02 6.396245360374450684e-01 3.166112303733825684e-01
5.366331934928894043e-01 -2.016009297221899033e-03 3.249061405658721924e-01
-9.140105545520782471e-02 6.837661862373352051e-01 -5.449073761701583862e-02
-1.693710833787918091e-01 -6.280121803283691406e-01 -2.299424260854721069e-01
4.085529744625091553e-01 3.188294768333435059e-01 -4.494002461433410645e-01
2.609552145004272461e-01 -2.571531534194946289e-01 -6.339286565780639648e-01
-5.212108492851257324e-01 -1.708088815212249756e-01 3.496125936508178711e-01
2.718104720115661621e-01 -5.964117050170898438e-01 -7.883819937705993652e-02
4.663162864744663239e-03 -3.523100316524505615e-01 6.875613331794738770e-01
-3.346277773380279541e-02 4.591201543807983398e-01 6.014032959938049316e-01
-1.041424870491027832e-01 -2.967617213726043701e-01 -6.907885670661926270e-01
5.768769383430480957e-01 2.893913537263870239e-02 -1.587589681148529053e-01
2.660416364669799805e-01 2.448331415653228760e-01 -6.497902870178222656e-01
3.666245043277740479e-01 5.531461238861083984e-01 2.294185012578964233e-02
5.694976449012756348e-01 1.671755611896514893e-01 -1.077143847942352295e-01
-5.543350577354431152e-01 2.354761064052581787e-01 7.848612219095230103e-02
4.202445149421691895e-01 -4.359415173530578613e-01 2.028777897357940674e-01
-4.387665092945098877e-01 -4.101169705390930176e-01 -2.534097433090209961e-01
-3.121872842311859131e-01 2.033387869596481323e-01 -6.209758520126342773e-01
3.341081738471984863e-01 4.917357563972473145e-01 3.516598045825958252e-01
5.813146829605102539e-01 4.887605458498001099e-02 1.207843422889709473e-01
5.780975222587585449e-01 2.655808441340923309e-02 1.497264802455902100e-01
1.805649101734161377e-01 3.779066205024719238e-01 6.273226141929626465e-01
4.458684027194976807e-01 2.429032623767852783e-01 -4.453182816505432129e-01
-2.412603944540023804e-01 -5.553202629089355469e-01 -3.363052308559417725e-01
2.612207531929016113e-01 2.250388711690902710e-01 6.685484051704406738e-01
5.408760905265808105e-01 -2.191464155912399292e-01 -1.535965055227279663e-01
3.039752691984176636e-02 -6.172667145729064941e-01 -3.311599493026733398e-01
2.228237390518188477e-01 6.103851795196533203e-01 -2.485468536615371704e-01
5.163185000419616699e-01 1.749084144830703735e-01 -3.346016108989715576e-01
5.549716949462890625e-01 -2.122742533683776855e-01 -7.610631175339221954e-03
-3.843177482485771179e-02 -6.843997836112976074e-01 -4.639150574803352356e-02
5.827037096023559570e-01 -5.296020954847335815e-02 7.869762182235717773e-02
1.125856861472129822e-01 1.385173946619033813e-01 -7.566036581993103027e-01
-3.258632719516754150e-01 -2.231395095586776733e-01 -6.006038784980773926e-01
4.150858521461486816e-01 -4.531049728393554688e-01 -1.603974103927612305e-01
3.412073254585266113e-01 1.172193065285682678e-01 6.360014677047729492e-01
1.809921264648437500e-01 7.455430179834365845e-02 7.543925642967224121e-01
-2.607493400573730469e-01 6.073780357837677002e-02 7.209754586219787598e-01
4.548363685607910156e-01 -3.647793233394622803e-01 2.516183257102966309e-01
7.143993675708770752e-02 -6.566523909568786621e-01 2.099446803331375122e-01
1.157054528594017029e-01 6.535401940345764160e-01 2.364017516374588013e-01
-4.319539368152618408e-01 3.222734332084655762e-01 -3.821790218353271484e-01
-8.333443105220794678e-02 2.545604705810546875e-01 -7.217004299163818359e-01
1.430333107709884644e-01 5.123889446258544922e-01 5.093873739242553711e-01
1.589487940073013306e-01 -6.260849833488464355e-01 2.353067547082901001e-01
4.646701812744140625e-01 3.217054903507232666e-01 3.362516760826110840e-01
