-9.206987023353576660e-01 -7.615235447883605957e-02 -3.390362858772277832e-02
-6.845067143440246582e-01 -7.468053698539733887e-02 5.544691905379295349e-02
-7.934469580650329590e-01 -1.177800446748733521e-02 -1.556622702628374100e-02
-6.856738924980163574e-01 -1.706888228654861450e-01 5.082670599222183228e-02
-8.646984696388244629e-01 2.410426735877990723e-03 -1.660917326807975769e-02
-8.395965695381164551e-01 -3.818008303642272949e-02 -2.724766358733177185e-02
-9.415383338928222656e-01 -9.189311414957046509e-02 5.051733180880546570e-02
-8.370980024337768555e-01 -1.491640210151672363e-01 5.256170034408569336e-02
-7.297009229660034180e-01 -2.550703883171081543e-01 2.416599541902542114e-02
-7.876308560371398926e-01 -9.443488717079162598e-02 6.125515326857566833e-02
-9.287582635879516602e-01 -2.147760987281799316e-02 5.535676702857017517e-02
-6.563816070556640625e-01 -1.813288033008575439e-01 4.690863937139511108e-02
-8.862884640693664551e-01 4.997303336858749390e-02 4.007594287395477295e-02
-7.974317669868469238e-01 -2.406252324581146240e-01 2.639035321772098541e-02
-8.481442928314208984e-01 -1.983281970024108887e-01 -3.600397333502769470e-02
-7.225093245506286621e-01 -2.604000866413116455e-01 2.107770368456840515e-02
-8.782169222831726074e-01 -5.017580837011337280e-02 5.978675559163093567e-02
-7.808064818382263184e-01 2.691762894392013550e-02 4.251020401716232300e-02
-8.330366015434265137e-01 -1.250606924295425415e-01 5.686001852154731750e-02
-8.136459589004516602e-01 -6.364835798740386963e-02 -3.131733834743499756e-02
-1.031193852424621582e+00 -1.392402946949005127e-01 -2.030046656727790833e-03
-6.738142371177673340e-01 -3.627657145261764526e-02 -8.726324886083602905e-04
-6.299145221710205078e-01 -1.586481928825378418e-01 -2.250881120562553406e-02
-8.999557495117187500e-01 -3.944158554077148438e-03 -1.980962231755256653e-02
-1.030407309532165527e+00 -9.796271473169326782e-02 -1.875546574592590332e-02
-6.120811104774475098e-01 -2.442196011543273926e-01 -1.220177952200174332e-02
-1.046472430229187012e+00 1.219458878040313721e-02 3.497896250337362289e-03
-8.339487314224243164e-01 -3.021755814552307129e-02 -2.493786066770553589e-02
-6.703650951385498047e-01 -1.945423185825347900e-01 -3.034456074237823486e-02
-1.052712917327880859e+00 -5.824114009737968445e-02 2.746001258492469788e-02
-6.856650710105895996e-01 -1.175952777266502380e-01 5.628972500562667847e-02
-1.068564534187316895e+00 -3.973130881786346436e-02 -2.078488469123840332e-03
-6.945412755012512207e-01 -1.063465923070907593e-01 -2.701805159449577332e-02
-6.615830659866333008e-01 -1.200733780860900879e-01 5.374844744801521301e-02
-8.378340005874633789e-01 -8.147864788770675659e-02 -3.527635335922241211e-02
-8.055708408355712891e-01 -3.799321502447128296e-02 -2.497078105807304382e-02
-9.365501403808593750e-01 -1.918440610170364380e-01 -2.488378435373306274e-02
-9.874304533004760742e-01 -5.963322147727012634e-02 -2.653340250253677368e-02
-6.855585575103759766e-01 -2.301867306232452393e-02 4.433845356106758118e-02
-1.052502870559692383e+00 -8.393657952547073364e-02 2.180816233158111572e-02
-1.001623034477233887e+00 -7.391038537025451660e-02 4.169115796685218811e-02
-6.824382543563842773e-01 -2.765367925167083740e-01 -4.371250048279762268e-03
-1.043878197669982910e+00 2.386286854743957520e-03 -2.517709508538246155e-03
-6.975212693214416504e-01 -3.243619203567504883e-02 -6.217227317392826080e-03
-7.543886303901672363e-01 -7.826650142669677734e-02 6.116201728582382202e-02
-6.653310060501098633e-01 -1.609869599342346191e-01 -2.908065915107727051e-02
-8.883294463157653809e-01 -1.998230963945388794e-01 -3.176099061965942383e-02
-6.832560300827026367e-01 -1.102713495492935181e-01 -2.593430876731872559e-02
-9.325324296951293945e-01 -2.108633518218994141e-01 -1.549566630274057388e-02
-6.338676810264587402e-01 -2.147794365882873535e-01 3.686952218413352966e-02
-8.717565536499023438e-01 -1.577579230070114136e-01 4.735581576824188232e-02
-1.000730633735656738e+00 -8.089241385459899902e-02 -2.612636238336563110e-02
-8.451620936393737793e-01 -2.277891039848327637e-01 2.584295347332954407e-02
-6.095864772796630859e-01 -2.067676782608032227e-01 -1.876011490821838379e-02
-5.660259723663330078e-01 -1.573398113250732422e-01 -9.712241590023040771e-04
-9.575569033622741699e-01 -1.943477988243103027e-01 1.147445477545261383e-02
-7.285099029541015625e-01 -1.160590350627899170e-02 5.036167800426483154e-02
-6.736601591110229492e-01 -2.247893810272216797e-01 3.712178394198417664e-02
-8.652633428573608398e-01 -1.217323988676071167e-01 -3.906868770718574524e-02
-9.036393165588378906e-01 -1.756525039672851562e-01 3.751984983682632446e-02
-9.560607671737670898e-01 -1.438763141632080078e-01 3.697666898369789124e-02
-8.010202050209045410e-01 -2.550353705883026123e-01 1.620123349130153656e-02
-9.193356633186340332e-01 -2.199209630489349365e-01 -1.383102219551801682e-02
-9.127647876739501953e-01 -1.873951703310012817e-01 3.120252490043640137e-02
-1.005686044692993164e+00 -4.166975617408752441e-03 -1.358109060674905777e-02
-1.065549492835998535e+00 -2.411858737468719482e-02 -1.090015284717082977e-03
-6.179090142250061035e-01 -2.583382129669189453e-01 1.213579438626766205e-02
-8.724265694618225098e-01 -3.685079514980316162e-03 5.732220411300659180e-02
-6.168390512466430664e-01 -1.414983421564102173e-01 4.618410021066665649e-02
-6.357845067977905273e-01 -1.280525773763656616e-01 4.996196553111076355e-02
-9.745943546295166016e-01 -3.178462386131286621e-02 4.975388199090957642e-02
-1.008942723274230957e+00 -1.486171334981918335e-01 -1.559832412749528885e-02
-9.002920389175415039e-01 -1.421032100915908813e-01 -3.770813718438148499e-02
-9.229263663291931152e-01 4.430296272039413452e-02 4.266497865319252014e-02
-9.530879259109497070e-01 -1.336462944746017456e-01 -3.271603956818580627e-02
-7.270330190658569336e-01 -1.039159074425697327e-01 -3.089748695492744446e-02
-5.944081544876098633e-01 -7.958927750587463379e-02 2.379085123538970947e-02
-9.131647348403930664e-01 -2.995547652244567871e-02 -2.661289647221565247e-02
-8.102851510047912598e-01 -2.639628946781158447e-01 1.901398412883281708e-03
-7.224284410476684570e-01 -2.291823178529739380e-02 5.262932181358337402e-02
-6.584649085998535156e-01 -1.286840587854385376e-01 5.306309834122657776e-02
-7.743066549301147461e-01 3.320530056953430176e-03 -6.195723079144954681e-03
-1.001007556915283203e+00 1.955399662256240845e-02 -5.836102180182933807e-03
-7.083244919776916504e-01 -2.460907697677612305e-01 2.943746745586395264e-02
-6.619634628295898438e-01 -2.105037868022918701e-02 2.084305137395858765e-02
-9.168300628662109375e-01 -1.217013597488403320e-02 -2.217508107423782349e-02
-5.865178108215332031e-01 -2.341244518756866455e-01 1.882623322308063507e-02
-7.218155264854431152e-01 -2.513744235038757324e-01 2.654248662292957306e-02
-9.728358387947082520e-01 -1.793371140956878662e-01 1.553348451852798462e-02
-8.390076160430908203e-01 -6.200094893574714661e-02 6.144540011882781982e-02
-7.782185077667236328e-01 -1.272957324981689453e-01 5.854703485965728760e-02
-7.127048969268798828e-01 -2.274863421916961670e-03 7.084360346198081970e-03
-6.819658875465393066e-01 -2.035420686006546021e-01 -3.133985400199890137e-02
-7.012353539466857910e-01 -1.314107626676559448e-01 -3.146557882428169250e-02
-9.054996371269226074e-01 -2.193572372198104858e-01 1.495126076042652130e-02
-8.481284379959106445e-01 -2.473899424076080322e-01 1.044875010848045349e-02
-7.269363999366760254e-01 -2.370561659336090088e-01 3.325234353542327881e-02
-6.884498000144958496e-01 -1.818899810314178467e-01 4.894699901342391968e-02
-8.851112127304077148e-01 -1.611523330211639404e-02 -2.315964177250862122e-02
-7.063210010528564453e-01 -1.413084566593170166e-03 3.893100470304489136e-02
-6.730249524116516113e-01 -2.683717012405395508e-01 -1.359585579484701157e-02
-5.661282539367675781e-01 -2.187345921993255615e-01 1.572920940816402435e-03
-7.438475489616394043e-01 5.126781761646270752e-03 1.820681616663932800e-03
-6.463665962219238281e-01 -4.252050817012786865e-02 7.273092400282621384e-03
-8.771917223930358887e-01 -1.966333836317062378e-01 -3.382968530058860779e-02
-7.442041635513305664e-01 -1.457100510597229004e-01 -3.689064458012580872e-02
-1.028939127922058105e+00 3.237418085336685181e-02 1.079871319234371185e-02
-8.106215000152587891e-01 -2.360407412052154541e-01 2.708404138684272766e-02
-1.015283107757568359e+00 3.090295940637588501e-02 3.202030807733535767e-02
-1.023247718811035156e+00 3.721187263727188110e-02 2.210274711251258850e-02
-9.672730565071105957e-01 1.637410372495651245e-02 -1.097818184643983841e-02
-8.385256528854370117e-01 -6.910987198352813721e-03 -1.822445541620254517e-02
-8.490198254585266113e-01 3.107639402151107788e-02 4.880841448903083801e-02
-9.898421168327331543e-01 -1.768229901790618896e-02 4.688467830419540405e-02
-8.076574802398681641e-01 -2.365911751985549927e-02 -2.108285576105117798e-02
-7.702295184135437012e-01 3.333174437284469604e-02 2.338596247136592865e-02
-9.900462031364440918e-01 4.710502177476882935e-02 1.044228672981262207e-02
-6.604430675506591797e-01 -2.721551656723022461e-01 7.453493773937225342e-03
-6.643083095550537109e-01 -2.152665704488754272e-01 3.956598788499832153e-02
-7.026236057281494141e-01 -2.252771556377410889e-01 -3.102803975343704224e-02
-8.595043420791625977e-01 -4.036147892475128174e-02 -2.853421121835708618e-02
-9.339856505393981934e-01 -2.154053747653961182e-02 -2.414121106266975403e-02
-8.549360036849975586e-01 -5.523385852575302124e-02 6.093128770589828491e-02
-6.739574670791625977e-01 -4.398794472217559814e-02 -4.809084348380565643e-03
-8.784835934638977051e-01 5.480907112360000610e-02 1.418434455990791321e-02
-8.735895156860351562e-01 2.986889332532882690e-02 -5.188292823731899261e-03
-7.687634825706481934e-01 -1.438359320163726807e-01 5.651409178972244263e-02
-6.284497976303100586e-01 -6.913366913795471191e-02 -2.724528312683105469e-04
-7.976480126380920410e-01 -1.064844429492950439e-03 5.565224587917327881e-02
-1.022652387619018555e+00 -1.251318454742431641e-01 -1.719347387552261353e-02
-8.105524778366088867e-01 4.415497183799743652e-03 -1.117399055510759354e-02
-8.391898274421691895e-01 -2.510466575622558594e-01 -1.688194274902343750e-02
-9.160877466201782227e-01 2.726369351148605347e-02 -8.091821335256099701e-03
-8.875771164894104004e-01 4.947945475578308105e-03 -1.662908121943473816e-02
-5.786174535751342773e-01 -1.767629235982894897e-01 3.385061025619506836e-02
-6.264139413833618164e-01 -1.818877458572387695e-01 -2.306631952524185181e-02
-9.025077819824218750e-01 5.338915437459945679e-02 3.751477971673011780e-02
-6.440010070800781250e-01 -1.576724946498870850e-01 4.908038675785064697e-02
-9.811795949935913086e-01 -3.751327097415924072e-02 4.859574511647224426e-02
-6.170253753662109375e-01 -2.523331940174102783e-01 -1.002906169742345810e-02
-7.917805910110473633e-01 -4.939862340688705444e-02 6.151600554585456848e-02
-5.663688182830810547e-01 -1.747492402791976929e-01 2.923130616545677185e-02
-9.511727094650268555e-01 -4.247820377349853516e-02 5.304432287812232971e-02
-9.920169115066528320e-01 -1.526245474815368652e-01 -2.128788083791732788e-02
-1.013829708099365234e+00 -9.058284014463424683e-02 -2.364950254559516907e-02
-9.460178017616271973e-01 -1.043605282902717590e-01 4.795060679316520691e-02
-8.194277286529541016e-01 -1.965720653533935547e-01 -3.757526353001594543e-02
-7.642838358879089355e-01 -2.578971982002258301e-01 -2.323414757847785950e-02
-8.523799180984497070e-01 -3.035473823547363281e-02 -2.591250464320182800e-02
-9.545225501060485840e-01 9.706757962703704834e-03 4.960774630308151245e-02
-9.316328763961791992e-01 -9.916312247514724731e-02 5.093690007925033569e-02
-9.134556651115417480e-01 -4.182008653879165649e-02 5.720562860369682312e-02
-9.768831729888916016e-01 -1.428537368774414062e-01 3.196247294545173645e-02
-8.536302447319030762e-01 -1.251078844070434570e-01 -3.937457501888275146e-02
-9.161721467971801758e-01 5.247481912374496460e-02 8.229527622461318970e-03
-9.010553359985351562e-01 2.004008740186691284e-02 5.204165354371070862e-02
-6.271206140518188477e-01 -1.232926398515701294e-01 -1.689279079437255859e-02
-6.055248379707336426e-01 -1.468098461627960205e-01 4.359417036175727844e-02
-9.627051353454589844e-01 4.233155399560928345e-02 1.784885302186012268e-03
-7.845044136047363281e-01 -2.514751255512237549e-01 2.156622707843780518e-02
-6.704436540603637695e-01 -2.426573038101196289e-01 -2.435426041483879089e-02
-8.215551972389221191e-01 -1.035719737410545349e-01 -3.749316930770874023e-02
-7.395754456520080566e-01 -2.394014596939086914e-01 3.181527554988861084e-02
-9.907885193824768066e-01 -1.291714608669281006e-02 -1.792466267943382263e-02
-1.057138681411743164e+00 -1.036990657448768616e-01 2.221533097326755524e-03
-6.475301980972290039e-01 -6.978277117013931274e-02 -7.540087215602397919e-03
-7.076979279518127441e-01 -2.152975201606750488e-01 4.121308773756027222e-02
-8.225789666175842285e-01 1.822339743375778198e-02 5.199975147843360901e-02
-6.561997532844543457e-01 -2.400037944316864014e-01 3.017074614763259888e-02
-7.125879526138305664e-01 -1.975894570350646973e-01 4.618358612060546875e-02
-6.447653174400329590e-01 -8.484980463981628418e-02 -1.192407216876745224e-02
-7.245816588401794434e-01 -5.780060589313507080e-02 -2.074705809354782104e-02
-9.987252950668334961e-01 -1.504130214452743530e-01 2.098845690488815308e-02
-9.225241541862487793e-01 5.635353177785873413e-02 1.256908196955919266e-02
-7.905548810958862305e-01 -1.070932522416114807e-01 6.037387251853942871e-02
-5.914379358291625977e-01 -2.203921973705291748e-01 -1.183112245053052902e-02
-8.582819700241088867e-01 -8.486470580101013184e-02 5.961423739790916443e-02
-7.526983618736267090e-01 -9.802541881799697876e-02 -3.264344483613967896e-02
-7.096718549728393555e-01 -1.561258435249328613e-01 -3.440403938293457031e-02
-9.103273153305053711e-01 1.617126911878585815e-02 -1.284632366150617599e-02
-7.484745979309082031e-01 -1.099908426403999329e-01 5.998423695564270020e-02
-5.589050054550170898e-01 -1.695936471223831177e-01 2.534374594688415527e-02
-1.013933300971984863e+00 -1.123484969139099121e-02 4.150754213333129883e-02
-9.084780216217041016e-01 4.473715275526046753e-02 2.033057622611522675e-03
-7.249382734298706055e-01 -1.762956380844116211e-04 4.067142959684133530e-03
-1.053095340728759766e+00 -1.030487492680549622e-01 1.283078640699386597e-02
-8.612093329429626465e-01 -6.868338584899902344e-02 6.033647060394287109e-02
-1.041351795196533203e+00 -1.273490786552429199e-01 1.681958325207233429e-03
-7.713308334350585938e-01 -1.863480508327484131e-01 -3.841024264693260193e-02
-8.952242732048034668e-01 -1.707404404878616333e-01 4.056013375520706177e-02
-8.179160356521606445e-01 -2.575371861457824707e-01 -1.647034287452697754e-02
-8.212659955024719238e-01 -1.269763857126235962e-01 -3.934077918529510498e-02
-8.345736861228942871e-01 -1.477405130863189697e-01 -4.003400355577468872e-02
-8.066560029983520508e-01 4.055058211088180542e-02 1.408635266125202179e-02
-7.467294931411743164e-01 -2.607613503932952881e-01 1.934342458844184875e-02
-7.077724933624267578e-01 -1.207827776670455933e-01 -3.100517019629478455e-02
-1.045010924339294434e+00 -5.100645124912261963e-03 3.132016211748123169e-02
-9.136701226234436035e-01 6.333455443382263184e-03 -1.650585234165191650e-02
-1.043588399887084961e+00 -7.527984678745269775e-03 -6.155923940241336823e-03
-9.266911745071411133e-01 -2.622914314270019531e-02 -2.546542882919311523e-02
-9.118135571479797363e-01 -8.818477392196655273e-02 -3.547875583171844482e-02
-7.636999487876892090e-01 -2.361849248409271240e-01 -3.124850615859031677e-02
-6.910161972045898438e-01 -1.467989385128021240e-02 6.427757907658815384e-03
-8.422008156776428223e-01 -1.613395810127258301e-01 4.956557974219322205e-02
-6.990020871162414551e-01 -1.623368412256240845e-01 5.280718952417373657e-02
-6.550154089927673340e-01 -6.032667681574821472e-02 4.800360649824142456e-02
-6.382068395614624023e-01 -2.189324796199798584e-01 -2.372642606496810913e-02
-9.998145103454589844e-01 -1.584820598363876343e-01 -1.567730680108070374e-02
-1.016008138656616211e+00 2.810888737440109253e-02 1.709690317511558533e-03
-6.617575883865356445e-01 -2.077931165695190430e-01 -2.850318700075149536e-02
-6.029732227325439453e-01 -1.225665956735610962e-01 4.293395206332206726e-02
-8.954195380210876465e-01 -1.170853823423385620e-01 -3.794081509113311768e-02
-6.796078681945800781e-01 -2.259640693664550781e-01 -2.873589098453521729e-02
-7.184756994247436523e-01 -2.342999875545501709e-01 3.453641012310981750e-02
-9.372200369834899902e-01 -1.433519721031188965e-01 -3.411920741200447083e-02
-7.626174688339233398e-01 -2.454650998115539551e-01 2.745172381401062012e-02
-6.928641200065612793e-01 -7.215245068073272705e-02 5.630540102720260620e-02
-7.641011476516723633e-01 -2.551615238189697266e-03 5.293998867273330688e-02
-6.662647128105163574e-01 -4.774399846792221069e-02 4.770605638623237610e-02
-6.089650392532348633e-01 -1.251470893621444702e-01 -1.214697491377592087e-02
-1.041351318359375000e+00 -6.915833801031112671e-02 -1.620452851057052612e-02
-7.356690168380737305e-01 1.970363408327102661e-02 2.368706278502941132e-02
-7.250487208366394043e-01 -1.411334276199340820e-01 5.657656490802764893e-02
-8.949334621429443359e-01 3.423630446195602417e-02 -4.022191278636455536e-03
-7.902464270591735840e-01 -1.938616931438446045e-01 -3.818783536553382874e-02
-6.655831336975097656e-01 -2.406652867794036865e-01 3.059119358658790588e-02
-8.947440981864929199e-01 -9.052944928407669067e-02 5.631218478083610535e-02
-7.825071215629577637e-01 -2.283770442008972168e-01 3.386517614126205444e-02
-7.201976180076599121e-01 -1.948027461767196655e-01 -3.538133203983306885e-02
-5.984829664230346680e-01 -2.021623551845550537e-01 3.435527160763740540e-02
-6.701200604438781738e-01 -1.563939750194549561e-01 5.183669552206993103e-02
-8.497022390365600586e-01 -1.141479164361953735e-01 -3.880160674452781677e-02
-8.486624360084533691e-01 1.572080701589584351e-02 5.376901850104331970e-02
-8.573015928268432617e-01 -2.447455823421478271e-01 -1.706495508551597595e-02
-8.302791714668273926e-01 -2.519604265689849854e-01 1.169146504253149033e-02
-9.696251153945922852e-01 -2.166658639907836914e-02 -2.208964526653289795e-02
-5.769543647766113281e-01 -1.431661248207092285e-01 3.501706570386886597e-02
-5.588588714599609375e-01 -1.403272449970245361e-01 1.115079037845134735e-02
-7.955369949340820312e-01 -1.608282774686813354e-01 -3.973708301782608032e-02
-6.933368444442749023e-01 -6.591747701168060303e-02 -1.755689829587936401e-02
-7.841289639472961426e-01 -1.399092376232147217e-02 -1.520414743572473526e-02
-7.520496249198913574e-01 -2.372101247310638428e-01 -3.094127774238586426e-02
-6.117936372756958008e-01 -1.344909965991973877e-01 -1.486438047140836716e-02
-7.833494544029235840e-01 -1.601327508687973022e-01 5.344254896044731140e-02
-7.536066770553588867e-01 -1.937444508075714111e-01 4.688562080264091492e-02
-9.255505800247192383e-01 -1.357822865247726440e-01 4.503822699189186096e-02
-6.654008626937866211e-01 -1.030572950839996338e-01 5.431824550032615662e-02
-8.355402946472167969e-01 1.378537714481353760e-02 5.392231792211532593e-02
-7.847781777381896973e-01 2.756717056035995483e-02 7.202180102467536926e-03
-8.568617105484008789e-01 -1.050484627485275269e-01 5.786113440990447998e-02
-6.100564599037170410e-01 -9.691269695758819580e-02 -4.467579536139965057e-03
-7.687165737152099609e-01 -3.281813859939575195e-02 -1.964525878429412842e-02
-8.144861459732055664e-01 -1.723795682191848755e-01 4.921058937907218933e-02
-9.034879803657531738e-01 -1.359722018241882324e-02 -2.264565229415893555e-02
-8.817307353019714355e-01 -1.100560054183006287e-01 -3.811540082097053528e-02
-6.423220634460449219e-01 -1.500778794288635254e-01 -2.421708777546882629e-02
-8.068575859069824219e-01 -2.100718319416046143e-01 -3.598547354340553284e-02
-9.409525990486145020e-01 3.459800034761428833e-02 -4.119651392102241516e-03
-7.153062820434570312e-01 -2.068859934806823730e-01 4.374898597598075867e-02
-8.916454315185546875e-01 2.151257544755935669e-02 5.204309895634651184e-02
-1.029939055442810059e+00 -1.238259673118591309e-01 1.863738521933555603e-02
-7.000769376754760742e-01 -6.238589063286781311e-02 5.630022287368774414e-02
-6.384069919586181641e-01 -2.654279470443725586e-01 1.109355967491865158e-02
-6.544159650802612305e-01 -1.935523152351379395e-01 -2.809667959809303284e-02
-1.010476708412170410e+00 -1.153347939252853394e-01 3.046080842614173889e-02
-8.043440580368041992e-01 2.143078297376632690e-02 4.927898570895195007e-02
-5.818747878074645996e-01 -1.582532376050949097e-01 3.664306551218032837e-02
-8.894900679588317871e-01 -2.286939173936843872e-01 -1.950262859463691711e-02
-9.248625040054321289e-01 9.950838983058929443e-03 -1.515404228121042252e-02
-8.411400318145751953e-01 -1.942510902881622314e-02 -2.236269041895866394e-02
-1.009482622146606445e+00 -3.634339570999145508e-02 4.297289997339248657e-02
-1.025341987609863281e+00 -1.121276021003723145e-01 2.585692331194877625e-02
-5.951043367385864258e-01 -1.426851153373718262e-01 4.113379120826721191e-02
-5.713646411895751953e-01 -2.285324186086654663e-01 1.240519341081380844e-02
-7.965015769004821777e-01 -3.478661179542541504e-02 -2.330270409584045410e-02
-9.163494110107421875e-01 -5.656180158257484436e-02 5.662526935338973999e-02
-7.065055966377258301e-01 -1.843841373920440674e-02 4.818191751837730408e-02
-9.790405631065368652e-01 -1.322225779294967651e-01 -2.849235013127326965e-02
-1.024531006813049316e+00 -1.429772675037384033e-01 -7.862270809710025787e-03
-1.006141662597656250e+00 -1.352146714925765991e-01 -2.102939784526824951e-02
-8.161234259605407715e-01 -1.694265753030776978e-01 -3.974777832627296448e-02
-7.569941282272338867e-01 -3.512551635503768921e-02 -1.880087330937385559e-02
-7.330700159072875977e-01 -9.320429712533950806e-02 -2.982152998447418213e-02
-8.423584103584289551e-01 -2.170222699642181396e-01 3.167033568024635315e-02
-8.028181791305541992e-01 -3.861941397190093994e-03 -1.366817485541105270e-02
-1.015797376632690430e+00 1.097758114337921143e-02 -6.737590767443180084e-03
-9.210945367813110352e-01 -1.656594276428222656e-01 3.755624592304229736e-02
-7.210747003555297852e-01 -1.646508723497390747e-01 5.313614383339881897e-02
-9.453275799751281738e-01 -2.083325684070587158e-01 -8.442862890660762787e-03
-6.808699369430541992e-01 -2.093674987554550171e-01 4.218109324574470520e-02
-8.637785911560058594e-01 5.095040053129196167e-02 1.167796831578016281e-02
-6.217490434646606445e-01 -2.264801561832427979e-01 3.138860687613487244e-02
-6.949900388717651367e-01 -9.371891617774963379e-02 5.747812986373901367e-02
-7.500520944595336914e-01 -1.632072627544403076e-01 5.357209593057632446e-02
-5.884617567062377930e-01 -1.619286090135574341e-01 -1.165630389004945755e-02
-9.484797716140747070e-01 -1.257208287715911865e-01 4.332198575139045715e-02
-7.522917389869689941e-01 -1.404860019683837891e-01 5.706586688756942749e-02
-7.825429439544677734e-01 -3.578983992338180542e-02 -2.217401936650276184e-02
-7.481833696365356445e-01 -9.341502189636230469e-02 6.074741855263710022e-02
-8.564694523811340332e-01 5.375900119543075562e-02 3.270420804619789124e-02
-9.057934880256652832e-01 -2.013782709836959839e-01 -2.850916981697082520e-02
-7.387235164642333984e-01 -8.497774600982666016e-03 5.112829059362411499e-02
-8.299809098243713379e-01 -4.298506677150726318e-02 -2.787500247359275818e-02
-7.950221300125122070e-01 -1.583776026964187622e-01 5.331550911068916321e-02
-9.492096900939941406e-01 -1.641651988029479980e-02 5.289324745535850525e-02
-6.547484397888183594e-01 -4.509525746107101440e-02 1.477623358368873596e-03
-5.783152580261230469e-01 -1.318756788969039917e-01 3.485155105590820312e-02
-6.143676638603210449e-01 -2.452297210693359375e-01 2.144723013043403625e-02
-7.691693902015686035e-01 -2.160989344120025635e-01 3.952453657984733582e-02
-7.431668043136596680e-01 -2.285377383232116699e-01 -3.268725797533988953e-02
-6.965590119361877441e-01 -2.088211774826049805e-01 4.290061816573143005e-02
-9.188300967216491699e-01 6.052184849977493286e-02 2.269741706550121307e-02
-1.028869390487670898e+00 -2.914937585592269897e-02 -1.524497848004102707e-02
-7.541570067405700684e-01 -2.562356591224670410e-01 2.183403074741363525e-02
-7.243856787681579590e-01 -2.750855684280395508e-01 6.719694007188081741e-03
-6.805642843246459961e-01 -2.715426385402679443e-01 1.139700878411531448e-02
-7.711817026138305664e-01 -1.959939897060394287e-01 -3.774205967783927917e-02
-9.186082482337951660e-01 3.680490702390670776e-02 -3.182340413331985474e-03
-8.638355135917663574e-01 4.851520061492919922e-03 5.616079270839691162e-02
-8.997517228126525879e-01 -1.253654807806015015e-01 5.085048824548721313e-02
-7.438251376152038574e-01 -2.699609398841857910e-01 -1.599616184830665588e-02
-1.031679272651672363e+00 -1.059448942542076111e-01 2.521817013621330261e-02
-8.231032490730285645e-01 -8.048218488693237305e-02 6.138426437973976135e-02
-8.818430900573730469e-01 5.654723197221755981e-02 3.282291814684867859e-02
-8.154185414314270020e-01 -4.406422376632690430e-03 5.723687633872032166e-02
-1.024555921554565430e+00 -1.333517432212829590e-01 1.663783751428127289e-02
-7.643401026725769043e-01 2.196206897497177124e-02 4.183740168809890747e-02
-9.214295744895935059e-01 -1.256229281425476074e-01 4.787103459239006042e-02
-6.784614920616149902e-01 -1.558039039373397827e-01 -3.065118193626403809e-02
-8.358815312385559082e-01 -2.184166908264160156e-01 -3.276547417044639587e-02
-5.636063814163208008e-01 -1.334942430257797241e-01 2.534956112504005432e-02
-8.455666303634643555e-01 2.337490767240524292e-02 5.146527290344238281e-02
-5.645803213119506836e-01 -1.664919704198837280e-01 -1.579093746840953827e-03
-7.470776438713073730e-01 -1.887277364730834961e-01 -3.734007850289344788e-02
-6.957311630249023438e-01 -2.420993149280548096e-01 -2.711917459964752197e-02
-6.965201497077941895e-01 -1.196607947349548340e-03 1.834406331181526184e-02
-5.952327251434326172e-01 -1.244049593806266785e-01 -7.181768305599689484e-03
-6.365324258804321289e-01 -1.877926737070083618e-01 -2.512533962726593018e-02
-9.454491734504699707e-01 -1.735099852085113525e-01 -2.833127230405807495e-02
-5.987527370452880859e-01 -1.634790003299713135e-01 -1.512933988124132156e-02
-7.149584889411926270e-01 1.014532893896102905e-02 2.705853432416915894e-02
-7.766312360763549805e-01 -5.586087703704833984e-03 -1.074969489127397537e-02
-1.052615880966186523e+00 -8.242303878068923950e-02 -1.121388096362352371e-02
-9.691042900085449219e-01 -5.915258452296257019e-02 4.961993172764778137e-02
-8.806101083755493164e-01 1.473873853683471680e-04 -1.807564496994018555e-02
-6.797231435775756836e-01 -7.854886353015899658e-02 -1.838468387722969055e-02
-5.640175342559814453e-01 -2.188098579645156860e-01 1.293299626559019089e-02
-9.054298400878906250e-01 -2.286179065704345703e-01 -1.165948156267404556e-02
-1.062684535980224609e+00 5.067586898803710938e-04 8.186345919966697693e-03
-6.536739468574523926e-01 -4.124832898378372192e-02 4.130439460277557373e-02
-6.715673804283142090e-01 -2.047111093997955322e-02 3.676512837409973145e-02
-9.394517540931701660e-01 -4.910910874605178833e-02 -2.934414148330688477e-02
-6.111108660697937012e-01 -2.182311713695526123e-01 3.237368166446685791e-02
-6.176446080207824707e-01 -1.052957326173782349e-01 4.561866819858551025e-02
-6.472869515419006348e-01 -2.274063229560852051e-01 3.427849337458610535e-02
-8.909302353858947754e-01 1.233473420143127441e-03 5.597224086523056030e-02
-9.605872631072998047e-01 -5.019038543105125427e-02 5.147315561771392822e-02
-6.276350021362304688e-01 -2.559958100318908691e-01 -1.141675282269716263e-02
-7.933558225631713867e-01 1.658768206834793091e-02 4.998243972659111023e-02
-5.803802609443664551e-01 -1.097791939973831177e-01 5.880109500139951706e-03
-7.149997949600219727e-01 -1.488502323627471924e-01 5.531693622469902039e-02
-9.922420978546142578e-01 -4.731243848800659180e-02 4.619474709033966064e-02
-5.820459723472595215e-01 -2.332632243633270264e-01 -3.701575100421905518e-03
-9.354100823402404785e-01 -1.400399208068847656e-01 4.228952899575233459e-02
-7.602020502090454102e-01 2.931494265794754028e-02 3.028387948870658875e-02
-6.830065250396728516e-01 -6.383688747882843018e-02 5.410984531044960022e-02
-8.593710064888000488e-01 -1.477378308773040771e-01 -3.959313407540321350e-02
-7.627089023590087891e-01 4.245787858963012695e-03 -3.395923413336277008e-03
-8.746305108070373535e-01 -1.311137080192565918e-01 -3.909529373049736023e-02
-8.940287828445434570e-01 -2.042386531829833984e-01 2.780111134052276611e-02
-7.505996823310852051e-01 -6.674691289663314819e-02 6.079300493001937866e-02
-7.173268795013427734e-01 -4.596325010061264038e-02 -1.589288562536239624e-02
-6.942673325538635254e-01 -1.155159622430801392e-01 -2.846185490489006042e-02
-7.082892656326293945e-01 -1.028403043746948242e-01 -2.838120236992835999e-02
-9.125206470489501953e-01 -3.978954255580902100e-02 -2.867757156491279602e-02
-7.238298058509826660e-01 -2.524209022521972656e-01 -2.570976689457893372e-02
-5.511571168899536133e-01 -1.774472743272781372e-01 1.401332952082157135e-02
-6.677711009979248047e-01 -1.699395775794982910e-01 -2.988551557064056396e-02
-9.525476098060607910e-01 5.659174174070358276e-02 1.507717184722423553e-02
-8.526964783668518066e-01 -6.446397304534912109e-02 6.088659912347793579e-02
-7.185276746749877930e-01 -3.341421484947204590e-02 -1.158651057630777359e-02
-8.945631384849548340e-01 -2.199181914329528809e-01 1.846314966678619385e-02
-6.025922894477844238e-01 -1.163979619741439819e-01 -7.816799916326999664e-03
-5.715980529785156250e-01 -1.223619356751441956e-01 6.432218477129936218e-03
-8.809436559677124023e-01 3.510861843824386597e-02 -2.756886184215545654e-03
-1.026178121566772461e+00 -3.838589787483215332e-02 3.866143897175788879e-02
-9.215152263641357422e-01 2.489341050386428833e-02 4.968732967972755432e-02
-7.901165485382080078e-01 -2.173466831445693970e-01 -3.508779034018516541e-02
-6.078451871871948242e-01 -1.055085435509681702e-01 -6.536005996167659760e-03
-8.032388687133789062e-01 -4.242040216922760010e-02 6.134231761097908020e-02
-6.874600648880004883e-01 -1.303205490112304688e-01 5.571531876921653748e-02
-6.718347072601318359e-01 -1.834720671176910400e-01 -3.070762753486633301e-02
-8.688210844993591309e-01 -2.276642322540283203e-01 2.065080031752586365e-02
-9.410594105720520020e-01 4.613883048295974731e-02 3.110839053988456726e-03
-1.055340170860290527e+00 -6.184165924787521362e-02 -1.080319005995988846e-02
-7.262639999389648438e-01 -1.780541241168975830e-01 -3.633654862642288208e-02
-6.401897072792053223e-01 -1.023812890052795410e-01 -1.558008883148431778e-02
-8.835011720657348633e-01 -2.309288680553436279e-01 1.350034680217504501e-02
-6.911504268646240234e-01 -2.116200327873229980e-01 -3.168153762817382812e-02
-6.393522024154663086e-01 -4.475764930248260498e-02 3.612622618675231934e-02
-8.169115185737609863e-01 -5.041544511914253235e-02 -2.878696098923683167e-02
-9.360256195068359375e-01 1.814756542444229126e-02 5.006193369626998901e-02
-7.353729009628295898e-01 -1.191289573907852173e-01 -3.384027630090713501e-02
-5.874732136726379395e-01 -9.953441470861434937e-02 6.307264324277639389e-03
-8.792757987976074219e-01 2.881652861833572388e-02 5.019693449139595032e-02
-9.988774061203002930e-01 -1.088034957647323608e-01 3.581421077251434326e-02
-8.519330024719238281e-01 -1.177763938903808594e-01 5.663503333926200867e-02
-8.003442287445068359e-01 4.275504499673843384e-02 2.231963537633419037e-02
-9.264227151870727539e-01 -6.328737735748291016e-02 5.522442981600761414e-02
-1.069300174713134766e+00 -6.953801214694976807e-02 1.294118538498878479e-02
-9.622349143028259277e-01 3.054983913898468018e-03 4.955711588263511658e-02
-6.956558227539062500e-01 -2.006718516349792480e-01 4.503790661692619324e-02
-8.269619941711425781e-01 -1.869538426399230957e-01 -3.842499107122421265e-02
-6.126418113708496094e-01 -1.585574448108673096e-01 4.424080252647399902e-02
-8.229088783264160156e-01 -2.434639036655426025e-01 -2.527074143290519714e-02
-1.006592392921447754e+00 -4.540748894214630127e-02 4.326081275939941406e-02
-7.550386786460876465e-01 -1.608172655105590820e-01 -3.815902024507522583e-02
-9.606899023056030273e-01 -8.866577595472335815e-02 4.790375009179115295e-02
-8.358483314514160156e-01 -1.771545857191085815e-01 4.624103754758834839e-02
-7.118808627128601074e-01 -2.316218167543411255e-01 -3.061218932271003723e-02
-7.350379228591918945e-01 -4.203794896602630615e-02 5.775681138038635254e-02
-7.018059492111206055e-01 -2.333196997642517090e-01 3.492290526628494263e-02
-7.705783843994140625e-01 -1.570501923561096191e-02 -1.395076792687177658e-02
-6.353232860565185547e-01 -1.426302790641784668e-01 -2.192443609237670898e-02
-8.082240819931030273e-01 -9.617336094379425049e-02 -3.616086021065711975e-02
-7.465698122978210449e-01 -6.898178160190582275e-02 -2.656904608011245728e-02
-8.179536461830139160e-01 -3.214266896247863770e-02 -2.438052371144294739e-02
-5.856937170028686523e-01 -1.935451626777648926e-01 -1.229958515614271164e-02
-9.450376629829406738e-01 5.255403369665145874e-02 8.884969167411327362e-03
-5.702667832374572754e-01 -2.101342678070068359e-01 2.287323027849197388e-02
-8.196924924850463867e-01 -4.328980296850204468e-02 6.148342043161392212e-02
-8.783338069915771484e-01 -4.011330008506774902e-02 -2.887655794620513916e-02
-9.625621438026428223e-01 -1.036918088793754578e-01 4.516750574111938477e-02
-6.056603193283081055e-01 -2.566593587398529053e-01 1.804194413125514984e-03
-7.060473561286926270e-01 4.723735153675079346e-03 2.038048394024372101e-02
-8.940390348434448242e-01 -6.179387494921684265e-02 5.841748043894767761e-02
-7.543749213218688965e-01 -5.036625266075134277e-02 -2.293296903371810913e-02
-1.062775373458862305e+00 -1.454064995050430298e-02 6.109569221735000610e-05
-8.341390490531921387e-01 -3.821266442537307739e-02 6.113854050636291504e-02
-9.800212979316711426e-01 -2.369543164968490601e-02 -2.158882096409797668e-02
-7.366434931755065918e-01 1.057787984609603882e-02 8.481240831315517426e-03
-9.670346379280090332e-01 -1.594525128602981567e-01 2.857569232583045959e-02
-9.502278566360473633e-01 -1.542257070541381836e-01 3.504414111375808716e-02
-6.979994773864746094e-01 -8.406795561313629150e-02 5.754125863313674927e-02
-9.691044688224792480e-01 -1.407310664653778076e-01 3.477626666426658630e-02
-8.953300118446350098e-01 -1.342742145061492920e-01 -3.817379102110862732e-02
-9.594784975051879883e-01 -5.010722950100898743e-02 -2.816808968782424927e-02
-9.170092940330505371e-01 -2.018755227327346802e-01 -2.597082033753395081e-02
-7.491582036018371582e-01 -2.185957133769989014e-02 -1.289103645831346512e-02
-7.279449105262756348e-01 -6.734380125999450684e-02 -2.375261113047599792e-02
-8.236740827560424805e-01 -2.161679416894912720e-02 5.988623201847076416e-02
-9.338914155960083008e-01 -1.897096633911132812e-01 2.454949542880058289e-02
-7.354660034179687500e-01 -1.035726964473724365e-01 5.993142351508140564e-02
-8.551921844482421875e-01 -2.092317044734954834e-01 -3.331195935606956482e-02
-9.697128534317016602e-01 -1.798812150955200195e-01 -1.899931952357292175e-02
-9.552960395812988281e-01 -2.139663696289062500e-02 -2.306486293673515320e-02
-8.190369009971618652e-01 -1.812046468257904053e-01 -3.907590359449386597e-02
-9.076431989669799805e-01 -1.349868774414062500e-01 4.792379215359687805e-02
-9.924657344818115234e-01 -8.175843209028244019e-02 4.267699271440505981e-02
-9.871405363082885742e-01 1.639085263013839722e-02 -9.069542400538921356e-03
-8.828548789024353027e-01 -1.422783285379409790e-01 -3.874471411108970642e-02
-6.826955080032348633e-01 -3.420033305883407593e-02 4.783841595053672791e-02
-7.180551886558532715e-01 -8.106593787670135498e-02 5.919111147522926331e-02
-7.761706709861755371e-01 -1.792575418949127197e-01 4.969576001167297363e-02
-1.046403765678405762e+00 -4.279116541147232056e-02 3.178800269961357117e-02
-9.916347861289978027e-01 7.374003529548645020e-03 4.427876323461532593e-02
-7.527209520339965820e-01 -8.265204727649688721e-02 -3.005081042647361755e-02
-7.765507698059082031e-01 -2.669035792350769043e-01 -1.557275932282209396e-02
-6.907578706741333008e-01 -5.991034954786300659e-02 5.476824939250946045e-02
-6.793637871742248535e-01 -1.267791092395782471e-01 5.528958141803741455e-02
-7.244228720664978027e-01 -7.560040056705474854e-02 -2.520462870597839355e-02
-6.557924151420593262e-01 -2.588106989860534668e-01 -1.653813198208808899e-02
-1.033000588417053223e+00 -1.184366866946220398e-01 -1.416784059256315231e-02
-1.073601722717285156e+00 -5.591483041644096375e-02 3.102600574493408203e-03
-8.459344506263732910e-01 1.853864639997482300e-02 -8.612208999693393707e-03
-8.627002239227294922e-01 -9.306079149246215820e-02 5.867351591587066650e-02
-5.716865658760070801e-01 -1.633244454860687256e-01 -4.988298751413822174e-03
-5.658905506134033203e-01 -1.569803953170776367e-01 3.002815693616867065e-02
-8.115105628967285156e-01 -8.308022469282150269e-02 -3.451563417911529541e-02
-7.254142165184020996e-01 -2.406600117683410645e-01 -2.935242280364036560e-02
-8.640614748001098633e-01 -2.272684127092361450e-02 -2.438471466302871704e-02
-1.041480302810668945e+00 1.930411905050277710e-02 5.685925018042325974e-03
-8.590236902236938477e-01 -2.094211578369140625e-01 3.233694657683372498e-02
-5.620259046554565430e-01 -2.063916623592376709e-01 1.915854960680007935e-02
-8.503422141075134277e-01 -2.493944764137268066e-02 6.005223467946052551e-02
-1.024881124496459961e+00 -8.775345981121063232e-03 3.848718851804733276e-02
-7.095909118652343750e-01 -1.345471292734146118e-01 -3.278948366641998291e-02
-6.435980796813964844e-01 -2.040021568536758423e-01 -2.594036236405372620e-02
-6.693794727325439453e-01 -5.757735297083854675e-02 -9.231629781424999237e-03
-7.709372639656066895e-01 -9.108509123325347900e-02 6.133738532662391663e-02
-7.748052477836608887e-01 -2.714262306690216064e-01 2.151363529264926910e-03
-9.265229701995849609e-01 -1.454651653766632080e-01 4.248419031500816345e-02
-1.004602432250976562e+00 -1.290678232908248901e-02 4.373023658990859985e-02
-7.338675856590270996e-01 -2.211675047874450684e-01 -3.360481932759284973e-02
-8.844373822212219238e-01 -1.246802657842636108e-01 -3.861674666404724121e-02
-9.012681841850280762e-01 -1.094987466931343079e-01 -3.737198561429977417e-02
-1.010528922080993652e+00 -1.609068661928176880e-01 -1.089609228074550629e-03
-9.294130802154541016e-01 -4.952021688222885132e-02 -2.989713102579116821e-02
-5.723563432693481445e-01 -1.317367106676101685e-01 1.909366808831691742e-03
-6.685490012168884277e-01 -2.066409289836883545e-01 4.224415868520736694e-02
-7.666162848472595215e-01 -6.276477873325347900e-02 -2.739335224032402039e-02
-8.675247430801391602e-01 1.645428687334060669e-02 -1.123356726020574570e-02
-5.518745183944702148e-01 -1.677057594060897827e-01 1.683786138892173767e-02
-8.805658817291259766e-01 -1.722963750362396240e-01 -3.714990243315696716e-02
-8.258323669433593750e-01 -2.600405812263488770e-01 1.156417652964591980e-03
-7.817519903182983398e-01 -7.616162300109863281e-02 -3.148064017295837402e-02
-8.033359050750732422e-01 -2.245931029319763184e-01 -3.321727737784385681e-02
-7.485335469245910645e-01 2.341163903474807739e-02 1.839714869856834412e-02
-8.390609025955200195e-01 -2.186776697635650635e-02 5.993719026446342468e-02
-7.224973440170288086e-01 -1.804886758327484131e-01 5.019614472985267639e-02
-5.758489370346069336e-01 -1.923658549785614014e-01 -8.526808582246303558e-03
-6.632648706436157227e-01 -2.828934043645858765e-02 3.823199495673179626e-02
-8.278494477272033691e-01 -5.259037017822265625e-03 -1.678790152072906494e-02
-8.605340719223022461e-01 -1.591813564300537109e-01 -3.922943398356437683e-02
-1.000105142593383789e+00 3.340374678373336792e-02 3.560442104935646057e-02
-7.850503921508789062e-01 -1.672092080116271973e-01 -3.943069279193878174e-02
-6.926189661026000977e-01 -4.697438329458236694e-02 -1.107702683657407761e-02
-1.032070040702819824e+00 -2.573221921920776367e-03 3.567931056022644043e-02
-9.567331075668334961e-01 4.167895764112472534e-02 4.051408544182777405e-02
-8.513558506965637207e-01 -8.447656780481338501e-02 -3.595032915472984314e-02
-9.525684118270874023e-01 -1.692097932100296021e-01 2.875541895627975464e-02
-7.760609388351440430e-01 -1.351635009050369263e-01 -3.826763480901718140e-02
-6.019566059112548828e-01 -1.576416194438934326e-01 4.212002456188201904e-02
-7.497396469116210938e-01 -5.938688665628433228e-02 -2.468832954764366150e-02
-1.058544635772705078e+00 -8.356250822544097900e-03 2.506686747074127197e-02
-6.557117700576782227e-01 -6.030343845486640930e-02 -6.316740997135639191e-03
-6.803603172302246094e-01 -9.049852937459945679e-02 -2.147715911269187927e-02
-8.542016148567199707e-01 -5.932983383536338806e-02 -3.217712789773941040e-02
-9.324688315391540527e-01 -8.129777014255523682e-02 5.302716419100761414e-02
-8.679292201995849609e-01 4.082196205854415894e-02 2.022642642259597778e-03
-6.605147123336791992e-01 -1.430615931749343872e-01 -2.678585425019264221e-02
-5.760679244995117188e-01 -2.171037346124649048e-01 2.286914736032485962e-02
-8.215223550796508789e-01 -1.044219583272933960e-01 5.980732291936874390e-02
-5.547767877578735352e-01 -1.581361740827560425e-01 8.657668717205524445e-03
-7.582829594612121582e-01 -1.151296943426132202e-01 5.977273732423782349e-02
-8.220978379249572754e-01 -2.614648342132568359e-01 -8.016367442905902863e-03
-7.861365675926208496e-01 -1.496691554784774780e-01 5.521060898900032043e-02
-9.530283212661743164e-01 1.322181522846221924e-02 -1.307262014597654343e-02
-8.808398842811584473e-01 -1.659500002861022949e-01 4.409084469079971313e-02
-8.695319890975952148e-01 -8.581515401601791382e-02 5.881688371300697327e-02
-6.305849552154541016e-01 -2.574154436588287354e-01 1.694295555353164673e-02
-9.903643131256103516e-01 -1.617170423269271851e-01 -1.867912337183952332e-02
-6.355342864990234375e-01 -1.482730060815811157e-01 4.887404292821884155e-02
-7.003281712532043457e-01 -1.684288829565048218e-01 -3.390122205018997192e-02
-7.360165119171142578e-01 -1.314731538295745850e-01 -3.517885506153106689e-02
-7.607793211936950684e-01 1.139447093009948730e-02 1.399010419845581055e-03
-8.971061706542968750e-01 -1.481861770153045654e-01 4.641418531537055969e-02
-6.700350642204284668e-01 -1.907938718795776367e-01 4.609867557883262634e-02
-9.548966884613037109e-01 -1.013952493667602539e-02 -2.030123770236968994e-02
-1.907043159008026123e-01 -3.146085441112518311e-01 -3.017694689333438873e-02
-5.865844339132308960e-02 -2.936339676380157471e-01 5.205436050891876221e-02
6.580864787101745605e-01 -1.580622047185897827e-01 3.124654479324817657e-02
-1.479114890098571777e-01 -3.717384487390518188e-02 -9.184059500694274902e-02
3.741859793663024902e-01 -1.948354765772819519e-02 -8.940135687589645386e-02
3.795803189277648926e-01 -1.456113308668136597e-01 -8.023876696825027466e-02
-2.828909754753112793e-01 -3.594128414988517761e-02 8.687949180603027344e-02
-1.760220527648925781e-01 -2.395383864641189575e-01 6.531470268964767456e-02
-5.998847484588623047e-01 2.162492424249649048e-01 6.416306830942630768e-03
5.351750254631042480e-01 2.047313004732131958e-01 -4.804866015911102295e-02
-7.268527150154113770e-02 -5.430546402931213379e-02 9.198140352964401245e-02
-4.939069747924804688e-01 -7.989875972270965576e-02 -6.191143020987510681e-02
4.656220972537994385e-01 7.061823271214962006e-03 -8.345392346382141113e-02
-8.623492717742919922e-02 2.563997507095336914e-01 -6.663616746664047241e-02
-2.453808486461639404e-01 -2.143451124429702759e-01 6.788525730371475220e-02
6.336411237716674805e-01 2.756166458129882812e-02 4.921133071184158325e-02
9.317290782928466797e-02 -1.749388873577117920e-01 -8.411102741956710815e-02
-4.724809229373931885e-01 2.701965868473052979e-01 1.946221478283405304e-02
6.261870861053466797e-01 1.396902929991483688e-02 -6.589751690626144409e-02
-1.336521208286285400e-01 -3.118531703948974609e-01 -3.799596056342124939e-02
-1.344587802886962891e-01 -1.404890418052673340e-01 -8.417420089244842529e-02
3.971531391143798828e-01 -1.260687112808227539e-01 7.234694063663482666e-02
1.591110825538635254e-01 -8.326645940542221069e-02 8.822862803936004639e-02
3.925489485263824463e-01 -6.944207847118377686e-02 -8.661952614784240723e-02
-1.253480017185211182e-01 -9.308530390262603760e-02 -8.942057192325592041e-02
5.227831378579139709e-02 -1.839988827705383301e-01 -8.249852806329727173e-02
2.113843262195587158e-01 3.376019299030303955e-01 -1.290672738105058670e-02
-3.208580017089843750e-01 -2.935720980167388916e-01 -2.330948226153850555e-02
8.044223487377166748e-02 3.134025335311889648e-01 -4.665852710604667664e-02
4.525385200977325439e-01 2.137552499771118164e-01 4.413404315710067749e-02
-2.351567149162292480e-01 2.147362828254699707e-01 6.842868030071258545e-02
3.833744823932647705e-01 2.256045639514923096e-01 4.930678382515907288e-02
5.575312972068786621e-01 -2.414376735687255859e-01 -3.661375120282173157e-02
-2.704230546951293945e-01 -3.197261393070220947e-01 9.857463650405406952e-03
4.562060534954071045e-01 1.035797372460365295e-01 6.594626605510711670e-02
-7.165971398353576660e-02 -1.985369026660919189e-01 -7.743148505687713623e-02
-4.211778044700622559e-01 4.233954474329948425e-02 -7.446762919425964355e-02
-2.634356319904327393e-01 -9.688909351825714111e-02 8.438844233751296997e-02
-4.809465259313583374e-02 3.085357546806335449e-01 4.320133104920387268e-02
-2.785268425941467285e-01 -3.148120045661926270e-01 -1.176485512405633926e-02
6.504073739051818848e-01 -1.625526100397109985e-01 -4.537034779787063599e-02
-2.698087692260742188e-01 3.109245300292968750e-01 3.038435615599155426e-02
4.007428586483001709e-01 -8.609044551849365234e-02 -8.505002409219741821e-02
-4.063529372215270996e-01 2.784204781055450439e-01 3.070680238306522369e-02
-4.427687823772430420e-01 2.850260734558105469e-01 1.440247241407632828e-02
1.261965036392211914e-01 2.381898649036884308e-02 -9.666148573160171509e-02
5.562170743942260742e-01 -2.599526345729827881e-01 -2.444395236670970917e-02
4.759309291839599609e-01 -1.915262937545776367e-01 -6.490761041641235352e-02
4.835559427738189697e-02 8.863221853971481323e-02 8.900067210197448730e-02
1.953272521495819092e-01 -1.502294242382049561e-01 8.125238120555877686e-02
-3.377710282802581787e-01 3.123370409011840820e-01 1.693059690296649933e-02
1.626400947570800781e-01 9.325379878282546997e-02 -9.320554882287979126e-02
3.847473263740539551e-01 -1.121484935283660889e-01 -8.378314971923828125e-02
-3.358701169490814209e-01 -3.023094832897186279e-01 1.346550974994897842e-02
-5.565993487834930420e-02 -3.175128996372222900e-01 -4.015794768929481506e-02
-2.519458532333374023e-01 4.740079492330551147e-02 8.778996020555496216e-02
3.589388132095336914e-01 -2.402670383453369141e-01 5.529399216175079346e-02
-2.493757903575897217e-01 2.434181720018386841e-01 -6.205658614635467529e-02
-6.653329133987426758e-01 -1.277071833610534668e-01 1.785762794315814972e-02
3.931241929531097412e-01 -2.172692865133285522e-01 -6.623358279466629028e-02
3.636157214641571045e-01 -3.069778978824615479e-01 -3.364577144384384155e-02
4.216344356536865234e-01 1.429986208677291870e-01 -7.633845508098602295e-02
-6.950097084045410156e-01 1.296151429414749146e-01 -3.644191892817616463e-03
2.180233597755432129e-01 -3.246279656887054443e-01 3.210002928972244263e-02
5.155412554740905762e-01 -2.192086726427078247e-02 6.676276773214340210e-02
-4.486373066902160645e-01 2.644169628620147705e-01 3.067376650869846344e-02
-2.568283379077911377e-01 -1.440345644950866699e-01 -7.710056751966476440e-02
8.094267919659614563e-03 4.731073277071118355e-04 9.294089674949645996e-02
-5.585429668426513672e-01 -1.911028623580932617e-01 -2.327631972730159760e-02
4.455989301204681396e-01 -2.346341311931610107e-01 4.778227210044860840e-02
5.739045143127441406e-01 1.173017546534538269e-01 4.889229685068130493e-02
4.474671185016632080e-01 1.467660218477249146e-01 -7.352939993143081665e-02
