-4.060345515608787537e-02 -5.560005083680152893e-02 1.742969006299972534e-01
4.472097456455230713e-01 -1.027891188859939575e-01 -4.827639088034629822e-02
-5.093188956379890442e-02 -9.866692125797271729e-02 1.534380614757537842e-01
2.759753465652465820e-01 1.538197696208953857e-01 1.805055141448974609e-02
3.615749776363372803e-01 -5.183338373899459839e-02 1.287487894296646118e-01
2.603873610496520996e-01 -1.429520547389984131e-01 8.093797415494918823e-02
-2.104164808988571167e-01 1.365454047918319702e-01 1.035228818655014038e-01
-1.387883871793746948e-01 -1.490287482738494873e-02 -1.757825165987014771e-01
1.024471968412399292e-01 1.679146438837051392e-01 6.333950906991958618e-02
3.756407797336578369e-01 -1.035731881856918335e-01 -9.471651911735534668e-02
2.915472388267517090e-01 2.280330099165439606e-02 1.542664468288421631e-01
3.066842257976531982e-02 -1.056442707777023315e-01 1.496726423501968384e-01
2.411816567182540894e-01 1.539426296949386597e-01 5.287393182516098022e-02
-4.308822751045227051e-01 6.634676456451416016e-02 9.371820092201232910e-02
-2.751717567443847656e-01 9.013205766677856445e-02 1.334289759397506714e-01
3.498305678367614746e-01 8.395176380872726440e-03 -1.395931988954544067e-01
-2.891806662082672119e-01 1.258756816387176514e-01 -8.304283022880554199e-02
-2.013929933309555054e-01 -1.364051401615142822e-01 1.022821292281150818e-01
-5.927637219429016113e-02 1.798406839370727539e-01 1.512917503714561462e-02
4.181187152862548828e-01 -4.937721043825149536e-02 1.092611551284790039e-01
3.003239929676055908e-01 -2.187647484242916107e-02 1.524326354265213013e-01
-5.668864771723747253e-02 1.574735045433044434e-01 9.440875798463821411e-02
7.570989895612001419e-03 -3.021082282066345215e-02 1.812954246997833252e-01
-2.739557325839996338e-01 9.085758775472640991e-02 -1.237187832593917847e-01
3.804408609867095947e-01 -1.155908629298210144e-01 7.084727287292480469e-02
-1.081315651535987854e-01 -7.137465476989746094e-02 1.647941321134567261e-01
-1.819296628236770630e-01 1.700092107057571411e-01 -1.225269958376884460e-02
9.071508049964904785e-02 1.772118210792541504e-01 -7.341353222727775574e-03
-1.135259792208671570e-01 -3.953427448868751526e-02 -1.754022687673568726e-01
-1.445868462324142456e-01 -1.802185624837875366e-01 3.089627716690301895e-05
3.053025603294372559e-01 -5.362795293331146240e-02 1.433316171169281006e-01
-3.309872746467590332e-01 -1.236589699983596802e-01 7.717255502939224243e-02
1.237921789288520813e-01 1.690566390752792358e-01 5.400570109486579895e-02
3.511824309825897217e-01 1.520666107535362244e-02 1.404330581426620483e-01
-3.496519029140472412e-01 1.382105946540832520e-01 -1.350222062319517136e-02
4.603531360626220703e-01 9.358817338943481445e-02 -4.397253971546888351e-03
2.845979630947113037e-01 1.381574422121047974e-01 7.088410854339599609e-02
8.340629935264587402e-02 -1.105041503906250000e-01 -1.499169915914535522e-01
3.451625630259513855e-02 1.801380366086959839e-01 6.034704274497926235e-04
-1.299971491098403931e-01 -1.694453656673431396e-01 -6.926939636468887329e-02
-2.360958755016326904e-01 -1.296685039997100830e-01 -1.086275950074195862e-01
-3.551464378833770752e-01 -1.020538285374641418e-01 9.413849562406539917e-02
4.665703773498535156e-01 -1.010679453611373901e-01 1.686254143714904785e-02
3.745762109756469727e-01 2.644750103354454041e-02 1.315303742885589600e-01
2.351368516683578491e-01 -8.125544339418411255e-02 -1.493375152349472046e-01
-3.229793906211853027e-01 1.465976238250732422e-01 7.576590869575738907e-03
-2.462101429700851440e-01 1.617512106895446777e-01 -4.409853834658861160e-03
-3.876430913805961609e-02 -9.503621608018875122e-02 -1.604848057031631470e-01
4.581086039543151855e-01 1.100457739084959030e-03 1.009351462125778198e-01
2.725453376770019531e-01 -1.626816987991333008e-01 -3.351730108261108398e-02
-2.572113573551177979e-01 -9.953039139509201050e-02 -1.309409439563751221e-01
-3.944266140460968018e-01 4.087120294570922852e-02 -1.158086061477661133e-01
-4.369159340858459473e-01 7.859554886817932129e-02 -7.070817053318023682e-02
2.186430543661117554e-01 1.373302936553955078e-01 -8.549407124519348145e-02
-3.445072174072265625e-01 -1.424450278282165527e-01 1.797440648078918457e-02
-2.930148877203464508e-02 -4.215748514980077744e-03 -1.818513572216033936e-01
-1.219289600849151611e-01 -1.634315401315689087e-01 -8.424215763807296753e-02
8.048743009567260742e-02 1.007662340998649597e-02 1.820915639400482178e-01
-9.256774559617042542e-03 -1.877896636724472046e-01 -7.080930285155773163e-03
-2.820625603199005127e-01 7.679113000631332397e-02 1.398571580648422241e-01
5.482890084385871887e-02 -1.606886833906173706e-02 1.823877394199371338e-01
4.416585564613342285e-01 -1.128513514995574951e-01 -2.719878032803535461e-02
2.895726263523101807e-01 1.478590667247772217e-01 -2.714326977729797363e-02
-2.968769073486328125e-01 8.222601562738418579e-02 -1.241848841309547424e-01
3.368910551071166992e-01 9.106340259313583374e-02 -1.043802797794342041e-01
4.638011381030082703e-02 -1.843323111534118652e-01 2.854751795530319214e-02
5.684065166860818863e-03 1.383697241544723511e-01 -1.108456999063491821e-01
-3.186044096946716309e-01 -8.963302522897720337e-02 1.183049455285072327e-01
-2.879775166511535645e-01 9.955333545804023743e-03 1.567507088184356689e-01
-4.443627297878265381e-01 -1.072668656706809998e-01 -4.239937756210565567e-03
3.627724200487136841e-02 -1.452930122613906860e-01 1.127285957336425781e-01
-9.296566247940063477e-02 -7.505495101213455200e-02 -1.669670939445495605e-01
8.813764899969100952e-02 8.048310875892639160e-02 -1.563294082880020142e-01
1.377043426036834717e-01 -1.630389690399169922e-01 -8.618184179067611694e-02
-2.499013394117355347e-01 1.323249638080596924e-01 9.891676157712936401e-02
4.894712269306182861e-01 -8.736521005630493164e-02 1.597098074853420258e-02
-4.005304574966430664e-01 4.640693217515945435e-02 -1.111718788743019104e-01
-3.286853805184364319e-02 -3.595098108053207397e-02 -1.800059676170349121e-01
6.402006000280380249e-02 6.491525471210479736e-02 1.719737052917480469e-01
4.581145644187927246e-01 9.013998508453369141e-02 3.474717214703559875e-02
-4.739835560321807861e-01 -1.703435368835926056e-02 8.977852761745452881e-02
9.695954620838165283e-02 -1.573745757341384888e-01 9.208341687917709351e-02
-1.040583699941635132e-01 -1.473872363567352295e-01 1.041834130883216858e-01
-5.270224213600158691e-01 -3.628540411591529846e-02 2.965161576867103577e-02
-4.471756890416145325e-02 3.035385347902774811e-02 -1.771528720855712891e-01
2.277560234069824219e-01 -9.641901403665542603e-02 1.371708065271377563e-01
-5.610849708318710327e-03 1.494914591312408447e-01 1.085781157016754150e-01
-1.434633731842041016e-01 1.742481440305709839e-01 2.390724420547485352e-02
-5.512842535972595215e-02 -5.877265334129333496e-02 -1.744810044765472412e-01
-8.152376860380172729e-02 -1.649851053953170776e-01 -8.756454288959503174e-02
-2.062056660652160645e-01 1.620822995901107788e-01 -3.757178038358688354e-02
1.418165266513824463e-01 -1.319062858819961548e-01 -1.274118572473526001e-01
3.245866000652313232e-01 -1.526798121631145477e-02 1.475663334131240845e-01
1.084100380539894104e-01 9.936623275279998779e-02 1.517566889524459839e-01
6.759253889322280884e-02 1.369151026010513306e-01 1.219659969210624695e-01
1.879816204309463501e-01 -1.292493045330047607e-01 -1.234263405203819275e-01
-3.109517991542816162e-01 -7.807667553424835205e-02 1.284324675798416138e-01
-3.668256103992462158e-02 -1.868316680192947388e-01 -1.720531284809112549e-02
-4.410497248172760010e-01 -1.058238521218299866e-01 -2.728208526968955994e-02
-2.524361312389373779e-01 1.587357968091964722e-01 -2.048018202185630798e-02
2.080561369657516479e-01 1.044266149401664734e-01 1.348876059055328369e-01
3.776373267173767090e-01 5.586359649896621704e-02 1.205304116010665894e-01
1.969507485628128052e-01 1.413250565528869629e-01 -8.479599654674530029e-02
3.551164269447326660e-01 2.809615992009639740e-02 -1.340249329805374146e-01
-4.227771759033203125e-01 1.047942414879798889e-01 5.266085639595985413e-02
3.776191174983978271e-01 -6.502953171730041504e-02 -1.209240555763244629e-01
-3.997204303741455078e-01 -3.280559554696083069e-02 -1.196035817265510559e-01
-2.188432812690734863e-01 -1.514696329832077026e-01 7.416183501482009888e-02
1.430936306715011597e-01 8.770572394132614136e-02 -1.474171429872512817e-01
9.343422949314117432e-02 1.451480537652969360e-01 -9.690898656845092773e-02
-8.665196597576141357e-02 1.788832098245620728e-01 7.922403514385223389e-03
1.269507259130477905e-01 -1.756461858749389648e-01 -5.821355059742927551e-02
3.563917577266693115e-01 -1.296406239271163940e-01 -6.908706575632095337e-02
-2.013683021068572998e-01 1.244725733995437622e-01 -1.083217188715934753e-01
1.067392528057098389e-01 -4.633599147200584412e-02 -1.754819005727767944e-01
-3.576792031526565552e-02 2.538687549531459808e-02 1.825831681489944458e-01
-1.403354406356811523e-01 4.215333238244056702e-02 1.739883273839950562e-01
2.145429253578186035e-01 2.839416451752185822e-02 1.672737896442413330e-01
-1.591742634773254395e-01 -1.349204629659652710e-01 1.121472418308258057e-01
4.669167846441268921e-02 -1.643020063638687134e-01 8.411649614572525024e-02
1.935890614986419678e-01 -1.747416108846664429e-01 2.408126741647720337e-02
6.926783919334411621e-02 9.780478477478027344e-02 -1.465651541948318481e-01
-1.917812973260879517e-01 1.682865470647811890e-01 -1.655441895127296448e-02
3.739153444766998291e-01 -8.410825394093990326e-03 -1.338022053241729736e-01
-3.209890425205230713e-01 -3.681729361414909363e-02 -1.432839930057525635e-01
9.098418802022933960e-02 -7.734648417681455612e-03 -1.799592077732086182e-01
1.305330991744995117e-01 -1.110681444406509399e-01 1.399676203727722168e-01
-2.127401679754257202e-01 -7.361278682947158813e-02 -1.539829820394515991e-01
1.142241880297660828e-01 3.983003646135330200e-02 1.761999577283859253e-01
-3.608927130699157715e-02 1.101122349500656128e-01 -1.387430280447006226e-01
-2.816250324249267578e-01 1.405429244041442871e-01 7.357391715049743652e-02
-1.567616462707519531e-01 -1.137201339006423950e-01 1.334949135780334473e-01
3.202912807464599609e-01 -6.571317091584205627e-03 1.492418497800827026e-01
4.497864097356796265e-02 -6.346498429775238037e-02 -1.738956570625305176e-01
-5.204004645347595215e-01 -4.210771992802619934e-02 3.479694575071334839e-02
3.515869081020355225e-01 1.167868301272392273e-01 7.546741515398025513e-02
-1.172003522515296936e-01 -1.827619969844818115e-01 -3.625450190156698227e-03
3.468752205371856689e-01 -1.344920545816421509e-01 -6.547369062900543213e-02
-3.314507603645324707e-01 -7.147970050573348999e-02 1.265427470207214355e-01
2.085501998662948608e-01 -9.597332775592803955e-02 -1.458789259195327759e-01
3.923030793666839600e-01 -2.121157199144363403e-02 1.269805282354354858e-01
-3.453321456909179688e-01 -1.181941181421279907e-01 -8.353516459465026855e-02
-2.608083486557006836e-01 1.052847057580947876e-01 1.253945082426071167e-01
-3.522282838821411133e-01 -9.723736345767974854e-02 -1.037902534008026123e-01
-5.051293969154357910e-01 6.686110794544219971e-02 1.745802536606788635e-02
-3.573449850082397461e-01 -9.103649854660034180e-02 1.039074435830116272e-01
-9.566748887300491333e-02 8.774815499782562256e-02 -1.516928076744079590e-01
5.419906973838806152e-02 1.242591589689254761e-01 -1.250755935907363892e-01
3.159183859825134277e-01 1.696522813290357590e-03 -1.489755064249038696e-01
3.701834008097648621e-02 -1.197446063160896301e-01 -1.450506448745727539e-01
3.295608609914779663e-02 -8.527595549821853638e-02 1.620143502950668335e-01
-1.461732946336269379e-02 1.117466166615486145e-01 -1.377872675657272339e-01
-1.331301927566528320e-01 1.637299805879592896e-01 7.146795094013214111e-02
1.091724932193756104e-01 1.221052557229995728e-01 -1.231938377022743225e-01
3.706574440002441406e-01 -3.617483377456665039e-02 -1.323859095573425293e-01
-2.966099046170711517e-02 3.895468637347221375e-02 1.805247366428375244e-01
-3.380520045757293701e-01 -7.571551483124494553e-03 1.446549594402313232e-01
-2.288582026958465576e-01 -1.645537167787551880e-01 3.492612019181251526e-02
-6.832113862037658691e-02 4.691516235470771790e-02 -1.718262434005737305e-01
4.953848123550415039e-01 7.098326086997985840e-02 -1.250440161675214767e-02
5.362924933433532715e-01 -1.201455853879451752e-02 -3.757889941334724426e-02
1.644960939884185791e-01 -1.404880881309509277e-01 -1.150949522852897644e-01
4.159062206745147705e-01 -1.261594742536544800e-01 3.407903132028877735e-04
4.160388708114624023e-01 4.925453662872314453e-02 1.083005592226982117e-01
-2.896525859832763672e-01 8.302854746580123901e-02 1.344757825136184692e-01
1.800245940685272217e-01 -1.500102877616882324e-01 9.098883718252182007e-02
-5.041639879345893860e-02 6.766784191131591797e-02 1.717734634876251221e-01
3.138693273067474365e-01 1.400147229433059692e-01 -3.591551631689071655e-02
3.726292252540588379e-01 1.066188663244247437e-01 -7.064893841743469238e-02
1.345290690660476685e-01 -1.130269318819046021e-01 -1.441690623760223389e-01
-9.828773885965347290e-02 -1.632736921310424805e-01 7.947529107332229614e-02
3.698895573616027832e-01 1.102619990706443787e-01 7.544298470020294189e-02
-1.276251524686813354e-01 -1.377370506525039673e-01 1.134458407759666443e-01
-3.752922415733337402e-01 8.534272760152816772e-02 -9.604097157716751099e-02
4.028676450252532959e-01 9.358046948909759521e-02 7.928451895713806152e-02
5.254830121994018555e-01 -4.627465456724166870e-02 3.290705010294914246e-02
4.503466784954071045e-01 6.183572113513946533e-02 -7.710269093513488770e-02
-9.122481942176818848e-02 1.313304752111434937e-01 1.274200379848480225e-01
4.003620445728302002e-01 -6.327101588249206543e-02 1.098529919981956482e-01
1.196450740098953247e-01 1.740386039018630981e-01 3.174570575356483459e-02
-3.429057896137237549e-01 1.387656033039093018e-01 3.421725705265998840e-02
2.493023425340652466e-01 4.791371151804924011e-02 1.570512950420379639e-01
-2.889687120914459229e-01 -5.865755304694175720e-02 1.439125984907150269e-01
2.419222891330718994e-01 -1.477679610252380371e-01 -8.775803446769714355e-02
-4.537127614021301270e-01 -9.880456328392028809e-02 -2.913298085331916809e-02
-2.674070298671722412e-01 1.558465212583541870e-01 3.564074635505676270e-02
-2.149566560983657837e-01 1.454827785491943359e-01 8.855377882719039917e-02
3.558606803417205811e-01 -1.048473119735717773e-01 9.559844434261322021e-02
-4.037249684333801270e-01 1.185429319739341736e-01 3.623554483056068420e-02
2.664471790194511414e-02 1.630682647228240967e-01 8.447776734828948975e-02
-2.366953343152999878e-01 -2.665101923048496246e-02 1.635279208421707153e-01
-3.799519240856170654e-01 5.368383228778839111e-02 1.226935386657714844e-01
4.034677147865295410e-01 5.786432884633541107e-04 1.245353221893310547e-01
-1.056582853198051453e-01 1.057691872119903564e-01 -1.384665220975875854e-01
-3.317154943943023682e-01 -9.937439113855361938e-02 -1.096200048923492432e-01
3.373568058013916016e-01 2.044722624123096466e-02 -1.408658921718597412e-01
-1.000636294484138489e-01 -5.099528469145298004e-03 1.810497939586639404e-01
3.766188919544219971e-01 1.281023174524307251e-01 1.296411268413066864e-02
-1.950739510357379913e-02 6.232196092605590820e-02 1.743456721305847168e-01
-6.408222764730453491e-02 -1.860940605401992798e-01 -1.040100865066051483e-02
8.957263827323913574e-02 1.418898850679397583e-01 -1.019205600023269653e-01
6.725470721721649170e-02 -1.744281649589538574e-01 6.099018082022666931e-02
1.369155347347259521e-01 -1.100840279832482338e-03 1.783435046672821045e-01
4.406814575195312500e-01 -9.040446579456329346e-02 6.719131022691726685e-02
5.112071037292480469e-01 -5.442789196968078613e-02 -4.755338653922080994e-02
2.259901165962219238e-01 -1.414653658866882324e-02 -1.664905250072479248e-01
1.192559972405433655e-01 -4.825009033083915710e-02 1.727122366428375244e-01
3.702003359794616699e-01 -1.132423579692840576e-01 -8.638662844896316528e-02
2.389652878046035767e-01 1.270859837532043457e-01 1.053457558155059814e-01
2.244500517845153809e-01 1.634532958269119263e-01 8.742417208850383759e-03
2.120402641594409943e-02 1.684239655733108521e-01 7.240592688322067261e-02
2.746110856533050537e-01 2.396252192556858063e-02 1.576079279184341431e-01
1.598123162984848022e-01 1.547026187181472778e-01 8.203129470348358154e-02
-2.873543500900268555e-01 7.418069988489151001e-02 -1.316360235214233398e-01
-3.807661235332489014e-01 -8.437491953372955322e-02 1.001132875680923462e-01
-4.406539499759674072e-01 6.655691657215356827e-03 1.091971769928932190e-01
-4.261773526668548584e-01 -1.127312555909156799e-01 -2.750345319509506226e-02
-2.797179222106933594e-01 1.139638423919677734e-01 1.123120039701461792e-01
2.421555519104003906e-01 -1.702827066183090210e-01 3.553354414179921150e-03
-3.303899168968200684e-01 9.832827374339103699e-03 1.469458490610122681e-01
-1.959401220083236694e-01 1.651970297098159790e-01 4.508053511381149292e-02
1.958489567041397095e-01 -1.369914263486862183e-01 1.057209894061088562e-01
4.077913463115692139e-01 -7.770539075136184692e-02 9.746619313955307007e-02
-1.368628740310668945e-01 7.919562608003616333e-02 -1.532293558120727539e-01
-2.905684709548950195e-01 -1.372940093278884888e-01 7.301038503646850586e-02
-3.921158313751220703e-01 1.086918115615844727e-01 -5.909045040607452393e-02
2.236894220113754272e-01 -1.731200218200683594e-01 2.849542070180177689e-03
-3.750137984752655029e-01 4.581683129072189331e-02 1.273892074823379517e-01
-3.860133141279220581e-02 6.576904654502868652e-02 1.728023588657379150e-01
-3.041188418865203857e-01 6.421635299921035767e-02 1.407355815172195435e-01
2.956708073616027832e-01 -9.229600429534912109e-02 1.253695785999298096e-01
3.516594767570495605e-01 1.343370229005813599e-01 -1.584014669060707092e-02
-4.436700791120529175e-02 -1.481908708810806274e-01 1.081138253211975098e-01
-7.412277907133102417e-02 1.436548531055450439e-01 1.142134964466094971e-01
-3.915414512157440186e-01 -1.261795312166213989e-01 -3.000617772340774536e-02
2.988204360008239746e-01 3.288149088621139526e-02 -1.471244990825653076e-01
-1.072445362806320190e-01 -7.928808778524398804e-02 -1.641710102558135986e-01
-1.169448122382164001e-01 -1.371308118104934692e-01 1.154680177569389343e-01
-2.275747060775756836e-01 -1.211611321195960045e-03 -1.648187339305877686e-01
-2.384251058101654053e-01 -5.547698214650154114e-02 1.552634686231613159e-01
3.241971433162689209e-01 -1.475702375173568726e-01 3.933329880237579346e-02
-1.480185687541961670e-01 -1.221216656267642975e-02 -1.749790459871292114e-01
-7.411927450448274612e-03 -1.611352115869522095e-01 -9.947868436574935913e-02
-1.765914261341094971e-01 -1.474732607603073120e-01 -9.986694902181625366e-02
2.880728840827941895e-01 -9.333389252424240112e-02 -1.317445486783981323e-01
-3.304505050182342529e-01 1.136592850089073181e-01 -8.395861834287643433e-02
-2.698824405670166016e-01 6.341925263404846191e-02 1.488161683082580566e-01
3.966258764266967773e-01 -9.996997565031051636e-02 -8.836318552494049072e-02
-1.727166324853897095e-01 1.493303030729293823e-01 -7.913097739219665527e-02
-3.733646571636199951e-01 -2.267767861485481262e-02 -1.305685341358184814e-01
5.366092920303344727e-02 1.391186863183975220e-01 1.202845871448516846e-01
1.321870237588882446e-01 1.238402575254440308e-01 1.295084804296493530e-01
-3.918433785438537598e-01 -2.149757184088230133e-02 -1.244521513581275940e-01
1.653698086738586426e-01 -1.540724337100982666e-01 8.742512762546539307e-02
-1.514447927474975586e-01 1.404810845851898193e-01 -9.704866260290145874e-02
-5.157798528671264648e-01 5.246504023671150208e-02 -2.205584198236465454e-02
4.206019043922424316e-01 -1.194971427321434021e-01 -3.721741959452629089e-02
5.323677062988281250e-01 3.717261925339698792e-02 -9.312736801803112030e-05
4.425334632396697998e-01 -7.184264250099658966e-03 1.084440350532531738e-01
-1.808573752641677856e-01 -1.466885209083557129e-01 9.247381985187530518e-02
1.423793733119964600e-01 1.875352114439010620e-02 -1.739229708909988403e-01
1.224806383252143860e-01 -1.837215125560760498e-01 -1.650219038128852844e-02
4.853807091712951660e-01 -8.267778158187866211e-02 -4.148478433489799500e-02
-1.194445639848709106e-01 5.504850763827562332e-03 1.799184828996658325e-01
-4.802898168563842773e-01 -3.881897032260894775e-02 7.785820960998535156e-02
9.746065735816955566e-02 -1.978002116084098816e-02 1.799587756395339966e-01
-3.691096305847167969e-01 1.305886954069137573e-01 -2.364112064242362976e-02
2.709096670150756836e-01 -1.648958921432495117e-01 9.521568194031715393e-03
-4.662419557571411133e-01 -5.283790454268455505e-02 -7.909698039293289185e-02
3.936702311038970947e-01 -1.125967577099800110e-01 6.756833940744400024e-02
3.902737498283386230e-01 -7.633670419454574585e-02 1.059268191456794739e-01
-1.550992578268051147e-01 -4.719112440943717957e-02 1.694692075252532959e-01
-3.088766634464263916e-01 -1.061446741223335266e-01 1.070756688714027405e-01
3.677210211753845215e-01 8.266453444957733154e-02 1.073650121688842773e-01
4.451230168342590332e-01 -6.981051713228225708e-02 -8.836236596107482910e-02
-2.838401198387145996e-01 1.440710425376892090e-01 -5.125457048416137695e-02
2.078396528959274292e-01 8.374100923538208008e-02 -1.412799656391143799e-01
-1.574143767356872559e-01 3.834418952465057373e-02 -1.677107065916061401e-01
8.961227536201477051e-02 1.778367459774017334e-01 1.098479423671960831e-02
3.813895881175994873e-01 -1.275045424699783325e-01 4.828754812479019165e-02
-4.222129285335540771e-01 1.140089035034179688e-01 2.224363759160041809e-02
-1.122436672449111938e-01 -1.544781923294067383e-01 -1.011222526431083679e-01
2.086502313613891602e-01 2.957395277917385101e-02 1.679324805736541748e-01
3.962774574756622314e-01 5.297638103365898132e-02 -1.099910214543342590e-01
-1.812506616115570068e-01 -1.581237465143203735e-01 7.238454371690750122e-02
3.603872358798980713e-01 1.318807899951934814e-01 2.559470012784004211e-02
1.562926173210144043e-01 4.240945354104042053e-02 -1.670100837945938110e-01
1.458336263895034790e-01 -8.156768977642059326e-02 1.572195291519165039e-01
-1.881747394800186157e-01 -1.603882014751434326e-01 6.545029580593109131e-02
1.222647577524185181e-01 -1.584772914648056030e-01 8.721874654293060303e-02
1.249807253479957581e-01 5.472927540540695190e-02 1.714320480823516846e-01
2.727573513984680176e-01 -1.608807444572448730e-01 3.185344114899635315e-02
-5.149090886116027832e-01 -6.033927574753761292e-02 -3.787525929510593414e-04
6.453792750835418701e-02 -1.820089071989059448e-01 3.699855133891105652e-02
1.005541607737541199e-01 -8.360123261809349060e-03 1.807945519685745239e-01
-1.854062229394912720e-01 1.664003878831863403e-01 -3.098014742136001587e-02
-2.402681857347488403e-01 1.384320706129074097e-01 9.276170283555984497e-02
-1.725562363862991333e-01 1.379988342523574829e-01 -9.687575697898864746e-02
4.193905591964721680e-01 1.064638644456863403e-01 4.239545017480850220e-02
-1.604784280061721802e-01 4.887050017714500427e-02 -1.641661822795867920e-01
-4.596870243549346924e-01 -7.842637598514556885e-02 5.956026166677474976e-02
-4.324937462806701660e-01 4.016257449984550476e-02 1.065220832824707031e-01
-2.136642634868621826e-01 -9.923154115676879883e-02 1.359679698944091797e-01
-3.506116867065429688e-01 1.204381510615348816e-01 7.604014873504638672e-02
4.529577493667602539e-02 1.336335539817810059e-01 -1.154018938541412354e-01
-1.823604255914688110e-01 -1.675561368465423584e-01 4.866603761911392212e-02
-5.238513350486755371e-01 1.718550734221935272e-02 4.922160506248474121e-02
-3.679833114147186279e-01 8.312384039163589478e-02 -1.008884236216545105e-01
-4.737632721662521362e-02 1.764559894800186157e-01 -2.985414117574691772e-02
-3.423446416854858398e-02 1.764088124036788940e-01 4.623970016837120056e-02
-2.850061953067779541e-01 -1.579159349203109741e-01 1.204973924905061722e-02
2.806376516819000244e-01 -9.353434294462203979e-02 1.282011717557907104e-01
2.157557457685470581e-01 -3.982838988304138184e-02 1.643138378858566284e-01
6.052503734827041626e-02 -2.819527126848697662e-02 -1.804638952016830444e-01
3.535390794277191162e-01 9.798251837491989136e-02 9.916367381811141968e-02
-3.871979564428329468e-02 -1.636517941951751709e-01 -9.396837651729583740e-02
1.980234086513519287e-01 -9.917271137237548828e-02 -1.455540060997009277e-01
-1.261060982942581177e-01 -7.566428929567337036e-02 -1.640610992908477783e-01
-1.384577900171279907e-01 1.443247348070144653e-01 -9.351536631584167480e-02
3.677456378936767578e-01 -1.322470009326934814e-01 -5.596296861767768860e-02
-4.666262306272983551e-03 1.673362106084823608e-01 7.581996917724609375e-02
1.569296121597290039e-01 1.699762791395187378e-01 3.520460799336433411e-02
3.005755543708801270e-01 -7.782668620347976685e-02 1.333046108484268188e-01
2.075380235910415649e-01 1.611635237932205200e-01 -3.357143700122833252e-02
3.427880406379699707e-01 -9.520626068115234375e-02 -1.147645339369773865e-01
4.936337769031524658e-01 -6.109857186675071716e-02 -6.014775857329368591e-02
4.493360221385955811e-01 -1.104132160544395447e-01 1.421587914228439331e-02
2.588452994823455811e-01 -5.169075727462768555e-02 -1.559343785047531128e-01
-7.384552061557769775e-02 -1.641552746295928955e-01 8.087804913520812988e-02
1.699723750352859497e-01 -1.685301512479782104e-01 5.675146356225013733e-02
8.966252952814102173e-02 7.381596416234970093e-02 1.669976264238357544e-01
-2.536561191082000732e-01 -1.151152402162551880e-01 -1.191551610827445984e-01
-2.893381416797637939e-01 4.614215716719627380e-02 -1.442903131246566772e-01
2.126051187515258789e-01 -1.005534008145332336e-01 -1.424023211002349854e-01
3.790695369243621826e-01 9.398066252470016479e-02 9.177344292402267456e-02
1.751931458711624146e-01 1.245173662900924683e-01 1.224007233977317810e-01
-1.685263365507125854e-01 1.590584069490432739e-01 7.414208352565765381e-02
3.978239595890045166e-01 -1.270499080419540405e-01 3.382945433259010315e-02
-1.352181583642959595e-01 -1.192296221852302551e-01 -1.372212320566177368e-01
4.336948320269584656e-02 -1.775055080652236938e-01 5.450945720076560974e-02
-2.976139783859252930e-01 9.582288563251495361e-02 1.235749870538711548e-01
1.948634237051010132e-01 -4.004358500242233276e-02 -1.682921350002288818e-01
-3.868403434753417969e-01 -1.061482802033424377e-01 7.350035011768341064e-02
-3.344801366329193115e-01 8.862403035163879395e-02 -1.084109768271446228e-01
-5.281369686126708984e-01 -3.212517872452735901e-02 -3.063485026359558105e-02
5.175657868385314941e-01 3.635166957974433899e-02 -4.103831201791763306e-02
-8.382675051689147949e-02 -1.038362309336662292e-01 1.482421308755874634e-01
3.370499610900878906e-01 1.089982986450195312e-01 9.372936189174652100e-02
-1.090581044554710388e-01 -1.817702203989028931e-01 -2.924940362572669983e-02
-4.998412430286407471e-01 -7.187129557132720947e-02 -1.628072187304496765e-02
5.142413377761840820e-01 2.428434044122695923e-02 5.679450556635856628e-02
1.278442442417144775e-01 -1.601261943578720093e-01 8.354804664850234985e-02
-2.827098369598388672e-01 1.534988284111022949e-01 3.186452016234397888e-02
2.407894656062126160e-02 1.791906356811523438e-01 2.927801385521888733e-02
4.396392703056335449e-01 -1.162403076887130737e-01 2.024420769885182381e-03
3.846752643585205078e-02 -9.593766182661056519e-03 1.834051907062530518e-01
-7.788656651973724365e-02 -1.815354228019714355e-01 3.219554945826530457e-02
1.702646315097808838e-01 1.133993864059448242e-01 -1.240492686629295349e-01
3.761701583862304688e-01 1.279416978359222412e-01 -6.842980161309242249e-03
2.671827971935272217e-01 -1.573700755834579468e-01 4.759933054447174072e-02
3.206710219383239746e-01 1.258473843336105347e-01 -6.632105261087417603e-02
-1.825905293226242065e-01 -5.210626497864723206e-02 -1.656620651483535767e-01
3.318016231060028076e-01 -1.282186061143875122e-01 -8.416004478931427002e-02
-3.368259966373443604e-01 3.418982774019241333e-02 1.421265751123428345e-01
-1.057043224573135376e-01 1.300382167100906372e-01 1.275488734245300293e-01
-9.935113042593002319e-02 -1.837027966976165771e-01 -1.733897253870964050e-02
-2.977871000766754150e-01 1.523497402667999268e-01 9.669777005910873413e-03
-1.168666854500770569e-01 -1.810415387153625488e-01 -3.000972419977188110e-02
4.038501977920532227e-01 5.696468427777290344e-02 1.096592098474502563e-01
3.135660290718078613e-01 1.457869708538055420e-01 1.335853151977062225e-02
1.642483472824096680e-01 -7.617814093828201294e-02 -1.615454107522964478e-01
-4.760401789098978043e-03 -1.861957907676696777e-01 1.901245117187500000e-02
5.272938609123229980e-01 4.343930259346961975e-02 7.067667786031961441e-03
-3.321811556816101074e-01 -1.638728566467761993e-02 1.452527344226837158e-01
-1.299208104610443115e-01 4.335307329893112183e-02 1.746199429035186768e-01
2.320993542671203613e-01 5.340624973177909851e-02 -1.529871374368667603e-01
-1.663038879632949829e-01 -4.755598679184913635e-02 -1.687607914209365845e-01
-1.067481637001037598e-01 1.683100610971450806e-01 -5.004997551441192627e-02
-1.600999683141708374e-01 -1.713576018810272217e-01 4.516483098268508911e-02
-2.638522908091545105e-02 1.400443911552429199e-01 -1.085537523031234741e-01
2.827278338372707367e-02 -2.358348807319998741e-03 -1.819497942924499512e-01
-5.029162764549255371e-01 -3.159698843955993652e-02 6.370791047811508179e-02
9.659366309642791748e-02 1.740801930427551270e-01 -2.736422047019004822e-02
-5.292193889617919922e-01 -9.222237393260002136e-03 4.370554536581039429e-02
3.664254844188690186e-01 1.295948326587677002e-01 -1.781557127833366394e-02
-4.732881113886833191e-02 -1.658231168985366821e-01 8.012893795967102051e-02
-9.566926211118698120e-02 1.738988310098648071e-01 4.738219827413558960e-02
3.204121589660644531e-01 1.051798760890960693e-01 -9.590929746627807617e-02
2.615608870983123779e-01 -1.419222950935363770e-01 -9.077382087707519531e-02
3.800292015075683594e-01 -6.910045444965362549e-02 1.143606379628181458e-01
-4.611345008015632629e-02 -7.972000166773796082e-03 1.833273917436599731e-01
1.603940576314926147e-01 1.432915925979614258e-01 -8.974993973970413208e-02
3.521579131484031677e-02 -1.877238005399703979e-01 -2.351584844291210175e-03
-2.332761585712432861e-01 -1.516302376985549927e-01 6.879084557294845581e-02
5.470541715621948242e-01 -6.778419949114322662e-03 -1.117479242384433746e-02
-3.753933906555175781e-01 -7.454106211662292480e-02 1.097935736179351807e-01
-1.329711526632308960e-01 -1.802716404199600220e-01 -2.501093223690986633e-02
-2.674708142876625061e-02 -6.615166366100311279e-02 -1.731357723474502563e-01
1.732129901647567749e-01 1.059896051883697510e-01 -1.302116513252258301e-01
1.201513856649398804e-01 5.992907285690307617e-02 -1.639915257692337036e-01
-3.904796764254570007e-02 -1.171810850501060486e-01 1.404413729906082153e-01
1.815315335988998413e-01 8.830954134464263916e-02 -1.422824561595916748e-01
4.453596174716949463e-01 -9.036630392074584961e-02 -6.932359933853149414e-02
2.070256769657135010e-01 -1.730979532003402710e-01 -3.431528434157371521e-02
1.655017137527465820e-01 -1.062545180320739746e-01 -1.454306244850158691e-01
3.340533375740051270e-02 6.631280481815338135e-02 1.725310832262039185e-01
-2.616554200649261475e-01 1.526154577732086182e-01 5.327194184064865112e-02
-3.478653430938720703e-01 6.698801368474960327e-02 1.272184699773788452e-01
-8.457637578248977661e-02 1.266174763441085815e-01 -1.212086454033851624e-01
-2.338836193084716797e-01 1.630396097898483276e-01 -1.181249413639307022e-02
1.293365806341171265e-01 1.577139943838119507e-01 8.271396905183792114e-02
-3.987506330013275146e-01 -1.257922053337097168e-01 1.083874143660068512e-02
7.471017539501190186e-02 -8.441471308469772339e-02 1.610306501388549805e-01
1.817590445280075073e-01 1.482056081295013428e-01 8.888519555330276489e-02
3.271144926548004150e-01 -9.572800248861312866e-02 1.139305680990219116e-01
2.187433838844299316e-01 -1.247363984584808350e-01 -1.222174316644668579e-01
2.251909822225570679e-01 1.128886714577674866e-01 1.241631507873535156e-01
1.805961877107620239e-02 -1.492206752300262451e-01 1.080760136246681213e-01
-2.012679427862167358e-01 -8.923511952161788940e-02 1.447771042585372925e-01
-5.091465115547180176e-01 -3.489240072667598724e-03 6.651844084262847900e-02
5.144837498664855957e-01 -5.871482565999031067e-02 -3.801636025309562683e-02
-1.862323433160781860e-01 1.358721964061260223e-02 -1.693562418222427368e-01
-7.959228008985519409e-02 1.730120480060577393e-01 5.422877520322799683e-02
-2.305083274841308594e-01 -1.626434773206710815e-01 4.113417118787765503e-02
1.095816344022750854e-01 7.976470142602920532e-02 1.628126949071884155e-01
-9.508579969406127930e-03 -1.755293458700180054e-01 -7.075650990009307861e-02
2.556158602237701416e-02 5.210965871810913086e-02 -1.714615225791931152e-01
-4.536468982696533203e-01 9.402427077293395996e-02 4.178555309772491455e-02
3.152370452880859375e-01 -1.406098902225494385e-01 6.246593594551086426e-02
-3.726902883499860764e-03 1.767967939376831055e-01 4.543231055140495300e-02
-2.166952043771743774e-01 8.688261359930038452e-02 -1.380907893180847168e-01
-1.583968997001647949e-01 -1.780602037906646729e-01 1.159700565040111542e-02
3.060177862644195557e-01 -1.415352374315261841e-01 6.521707028150558472e-02
1.476327925920486450e-01 1.094905510544776917e-01 1.402546912431716919e-01
1.294396519660949707e-01 1.424782127141952515e-01 -9.623043239116668701e-02
1.392266452312469482e-01 1.078221350908279419e-01 -1.331085115671157837e-01
1.941187679767608643e-01 -1.197225004434585571e-01 1.243945732712745667e-01
-2.233534306287765503e-01 7.316919416189193726e-02 1.531910747289657593e-01
3.804128766059875488e-01 2.842882834374904633e-02 -1.260189265012741089e-01
-9.255086630582809448e-02 3.069059457629919052e-03 1.816996783018112183e-01
-5.084775090217590332e-01 1.850003935396671295e-02 -6.007742136716842651e-02
1.711640506982803345e-01 -9.597429633140563965e-02 1.460618674755096436e-01
-2.149487286806106567e-02 -1.634718328714370728e-01 -9.517014771699905396e-02
4.480647444725036621e-01 -5.448825191706418991e-03 -1.053740009665489197e-01
1.562083661556243896e-01 1.601856797933578491e-01 7.063855975866317749e-02
5.424535870552062988e-01 -1.756815798580646515e-02 2.363931760191917419e-02
3.994985297322273254e-02 -8.891274780035018921e-02 -1.640439480543136597e-01
1.597389727830886841e-01 1.505848765373229980e-01 8.992060273885726929e-02
1.766715571284294128e-02 -2.865303680300712585e-02 1.814951896667480469e-01
-6.209977716207504272e-02 -6.569288671016693115e-02 1.698812693357467651e-01
3.693589568138122559e-01 -1.344123333692550659e-01 4.070128872990608215e-02
2.057239562273025513e-01 -1.754761487245559692e-01 -1.552787330001592636e-02
3.146698176860809326e-01 -1.392257064580917358e-01 -7.402342557907104492e-02
-5.893866345286369324e-02 -3.636123985052108765e-02 1.789634525775909424e-01
5.736891925334930420e-02 -9.216803312301635742e-02 1.575031429529190063e-01
1.183101609349250793e-01 1.616276949644088745e-01 -6.305011361837387085e-02
-2.458972781896591187e-01 9.720440953969955444e-02 1.350193768739700317e-01
-3.849672973155975342e-01 2.392446808516979218e-02 -1.243712827563285828e-01
1.644147001206874847e-02 1.688942164182662964e-01 -5.723954737186431885e-02
4.741465449333190918e-01 -8.788210898637771606e-02 -4.632769897580146790e-02
3.697857856750488281e-01 -1.121652945876121521e-01 8.113150298595428467e-02
-2.419372946023941040e-01 -1.186585575342178345e-01 1.133191362023353577e-01
9.214235469698905945e-04 -1.670034974813461304e-01 7.991660386323928833e-02
1.303442418575286865e-01 -1.325515210628509521e-01 -1.280883550643920898e-01
3.659353554248809814e-01 -1.430313885211944580e-01 -9.626893326640129089e-03
3.459483087062835693e-01 1.192677393555641174e-01 7.444045692682266235e-02
-3.457939624786376953e-02 1.558895260095596313e-01 9.819874167442321777e-02
-3.591996431350708008e-01 -1.073818653821945190e-01 8.626581728458404541e-02
-2.993382811546325684e-01 -1.540300548076629639e-01 -2.552119642496109009e-02
3.845463320612907410e-02 1.700302660465240479e-01 6.690660119056701660e-02
4.475006088614463806e-02 -1.103080362081527710e-01 -1.516594290733337402e-01
1.721088737249374390e-01 1.477090865373611450e-01 9.212155640125274658e-02
-9.162903577089309692e-02 -1.646143496036529541e-01 7.780240476131439209e-02
5.324836373329162598e-01 3.527199104428291321e-02 1.384671404957771301e-02
4.807563871145248413e-02 1.441460847854614258e-01 1.142980977892875671e-01
-2.473791986703872681e-01 1.683715265244245529e-03 1.645263731479644775e-01
-2.498835474252700806e-01 1.445131897926330566e-01 7.885887473821640015e-02
3.572694361209869385e-01 2.780813910067081451e-02 1.366422772407531738e-01
-3.504267036914825439e-01 1.378850042819976807e-01 2.730389311909675598e-02
-1.027984097599983215e-01 -1.681704074144363403e-01 -7.792238146066665649e-02
-9.540104866027832031e-02 1.245193481445312500e-01 1.339039355516433716e-01
4.570714756846427917e-02 -1.505905538797378540e-01 -1.141116917133331299e-01
-1.364158540964126587e-01 -1.073442846536636353e-01 -1.459972411394119263e-01
-1.193157881498336792e-01 -7.056192029267549515e-03 -1.775098443031311035e-01
4.965558052062988281e-01 7.109747827053070068e-02 1.233901362866163254e-02
1.423813700675964355e-01 -1.285502165555953979e-01 1.232925951480865479e-01
-2.544519007205963135e-01 5.606482550501823425e-02 -1.476282179355621338e-01
3.697117567062377930e-01 -1.670739729888737202e-03 -1.348208934068679810e-01
-4.377133846282958984e-01 -3.363778814673423767e-02 1.044186875224113464e-01
-1.770374774932861328e-01 -6.504867970943450928e-02 -1.624458283185958862e-01
-4.184052944183349609e-01 -1.652146689593791962e-02 -1.148744449019432068e-01
-1.663674116134643555e-01 -1.763833314180374146e-01 1.839648559689521790e-02
3.456332087516784668e-01 7.282274309545755386e-03 1.426417380571365356e-01
-4.959145784378051758e-01 -7.298417389392852783e-02 -2.374433726072311401e-02
-3.970112800598144531e-01 5.798478424549102783e-02 1.142894029617309570e-01
5.208106711506843567e-02 -7.578174769878387451e-02 -1.694398373365402222e-01
2.333209812641143799e-01 -1.626161038875579834e-01 -5.951156467199325562e-02
-4.403837397694587708e-02 5.061843618750572205e-02 -1.715069711208343506e-01
2.682666778564453125e-01 -1.406049877405166626e-01 8.206367492675781250e-02
-4.386674463748931885e-01 1.080102697014808655e-01 1.175743411295115948e-03
-3.627725541591644287e-01 5.453436076641082764e-02 1.281857043504714966e-01
-2.119980156421661377e-01 -4.223189130425453186e-02 1.637770682573318481e-01
-2.959289252758026123e-01 9.812067449092864990e-02 -1.121374964714050293e-01
-5.082277581095695496e-02 -1.368165612220764160e-01 1.213663369417190552e-01
-6.710198521614074707e-02 4.730902612209320068e-02 1.775654554367065430e-01
-4.454358518123626709e-01 -1.049991250038146973e-01 1.723464950919151306e-02
-1.555993109941482544e-01 5.154674127697944641e-02 1.701326817274093628e-01
1.509655416011810303e-01 -4.637497663497924805e-02 -1.719507873058319092e-01
9.123669564723968506e-02 2.576786465942859650e-02 1.801606267690658569e-01
2.465033531188964844e-01 -1.684799343347549438e-01 -2.603334560990333557e-02
1.003516279160976410e-02 1.709862053394317627e-01 6.590728461742401123e-02
-4.191672801971435547e-01 1.162265613675117493e-01 1.272935885936021805e-02
-1.667213737964630127e-01 -1.004219874739646912e-01 1.424058377742767334e-01
-2.351452559232711792e-01 -3.645623102784156799e-02 1.616807430982589722e-01
5.187284946441650391e-02 1.768992096185684204e-01 -2.453402429819107056e-02
4.540595710277557373e-01 -2.342018857598304749e-02 1.009421348571777344e-01
2.423079460859298706e-01 -2.990111336112022400e-02 -1.628793329000473022e-01
4.378844201564788818e-01 -1.120696589350700378e-01 2.955678105354309082e-02
1.427387148141860962e-01 1.732785105705261230e-01 -5.350185092538595200e-03
-2.258661240339279175e-01 -1.229806244373321533e-01 -1.183172613382339478e-01
2.727181315422058105e-01 -1.055960655212402344e-01 1.208460927009582520e-01
-1.346038840711116791e-02 -1.133120730519294739e-01 1.441540122032165527e-01
3.504697978496551514e-01 -1.150518432259559631e-01 -9.324160218238830566e-02
2.854151725769042969e-01 -1.373367160558700562e-01 8.116149157285690308e-02
2.354346364736557007e-01 -1.715630292892456055e-01 -3.520542755722999573e-03
5.500174313783645630e-02 3.398796916007995605e-02 -1.761291027069091797e-01
8.931680023670196533e-02 -1.859632730484008789e-01 -4.515594337135553360e-04
3.060744702816009521e-01 -1.584532260894775391e-01 -6.122059654444456100e-03
-3.953453600406646729e-01 -3.117369301617145538e-02 1.228179112076759338e-01
4.550628066062927246e-01 -5.667002499103546143e-02 -9.067309647798538208e-02
1.851896345615386963e-01 -8.935745805501937866e-02 1.483102887868881226e-01
-3.719400763511657715e-01 3.931770101189613342e-02 -1.242708191275596619e-01
-2.360798567533493042e-01 -4.699196666479110718e-02 -1.589450240135192871e-01
1.805482059717178345e-01 -3.203231468796730042e-02 -1.712049692869186401e-01
-3.566442430019378662e-01 -9.437434375286102295e-03 1.393300592899322510e-01
3.243939280509948730e-01 3.105722181499004364e-02 -1.415537744760513306e-01
1.413803696632385254e-01 1.680233776569366455e-01 -3.802909329533576965e-02
2.297396808862686157e-01 8.377242088317871094e-02 1.449916660785675049e-01
-1.835032701492309570e-01 1.689217686653137207e-01 3.372786939144134521e-02
-2.525076866149902344e-01 -1.303290426731109619e-01 9.706567972898483276e-02
1.942561268806457520e-01 3.633209690451622009e-02 -1.643851995468139648e-01
-5.999363586306571960e-02 7.252974808216094971e-02 -1.619333922863006592e-01
1.123154908418655396e-01 1.459031701087951660e-01 -9.352897107601165771e-02
3.228171169757843018e-01 1.436907202005386353e-01 3.758355975151062012e-03
3.547910600900650024e-02 1.101086959242820740e-01 1.485912054777145386e-01
-2.360751181840896606e-01 9.294468909502029419e-02 -1.303727477788925171e-01
-7.435265928506851196e-02 5.330491438508033752e-02 1.756386756896972656e-01
-3.873572498559951782e-02 -1.470118314027786255e-01 1.099179536104202271e-01
3.548276424407958984e-01 -1.028572171926498413e-01 -1.040809750556945801e-01
-2.361669987440109253e-01 1.636646986007690430e-01 8.021258981898427010e-04
2.473503798246383667e-01 -7.155708223581314087e-02 1.479012370109558105e-01
-7.586489617824554443e-02 -1.318018883466720581e-01 1.251049339771270752e-01
3.671829402446746826e-01 -7.677946239709854126e-02 1.143020316958427429e-01
1.366910040378570557e-01 -6.144956499338150024e-02 1.669450402259826660e-01
-2.942949831485748291e-01 -1.443570852279663086e-01 -6.380374729633331299e-02
-1.586146056652069092e-01 -1.169405952095985413e-01 -1.360132247209548950e-01
5.316991209983825684e-01 -3.148738294839859009e-02 3.631800413131713867e-02
1.024177372455596924e-01 -1.624335944652557373e-01 -9.239622205495834351e-02
-9.195310622453689575e-02 -1.694040745496749878e-01 6.755431741476058960e-02
3.349911570549011230e-01 1.299601793289184570e-01 5.951968207955360413e-02
-4.718519151210784912e-01 -6.457944959402084351e-02 -6.608730554580688477e-02
-3.007150888442993164e-01 1.946778967976570129e-02 -1.487944871187210083e-01
5.098347663879394531e-01 2.452935092151165009e-02 6.107477843761444092e-02
-3.536525368690490723e-01 -4.555113986134529114e-02 1.320589631795883179e-01
1.421258896589279175e-01 -4.606404341757297516e-03 1.777858138084411621e-01
1.911633163690567017e-01 1.060553863644599915e-01 -1.273659914731979370e-01
-2.995680570602416992e-01 1.308375597000122070e-01 -7.112477719783782959e-02
-2.214979231357574463e-01 -3.944160044193267822e-02 1.630988419055938721e-01
1.583584398031234741e-01 -1.519495844841003418e-01 9.208603948354721069e-02
3.840758502483367920e-01 8.221188187599182129e-02 -9.385152161121368408e-02
3.589259982109069824e-01 9.236685186624526978e-02 -9.474380314350128174e-02
3.071414120495319366e-02 7.574497163295745850e-02 1.687629371881484985e-01
-4.166196584701538086e-01 -1.102654412388801575e-01 -4.796392843127250671e-02
-4.522511661052703857e-01 -7.429803162813186646e-02 -7.189571112394332886e-02
-3.133055195212364197e-02 1.061914414167404175e-01 -1.419674307107925415e-01
-2.952597737312316895e-01 1.374863833189010620e-01 7.335706800222396851e-02
-2.541727423667907715e-01 2.404325641691684723e-02 -1.573754698038101196e-01
2.850806713104248047e-01 -1.031927615404129028e-01 1.197561025619506836e-01
3.437984585762023926e-01 1.102279871702194214e-01 -8.010101318359375000e-02
-2.938737869262695312e-01 1.524504572153091431e-01 -8.250913582742214203e-03
2.180452793836593628e-01 3.683384880423545837e-02 -1.609264314174652100e-01
-2.446102946996688843e-01 8.528618142008781433e-03 -1.613467037677764893e-01
4.346444308757781982e-01 -7.224858272820711136e-03 1.119760051369667053e-01
-1.917713433504104614e-01 -1.210694685578346252e-01 1.213811561465263367e-01
1.179455071687698364e-01 -1.441096663475036621e-01 1.086420044302940369e-01
4.573054909706115723e-01 8.715573698282241821e-02 -3.659504652023315430e-02
-7.190547883510589600e-02 6.713300943374633789e-02 1.711551249027252197e-01
1.738918721675872803e-01 -1.732960939407348633e-01 -5.126262083649635315e-02
5.605821311473846436e-02 1.652137041091918945e-01 7.755806297063827515e-02
1.791471838951110840e-01 -1.351508051156997681e-01 1.109290942549705505e-01
-3.720191419124603271e-01 -1.116983406245708466e-02 1.345062106847763062e-01
2.852825820446014404e-01 3.777429461479187012e-02 1.526821255683898926e-01
4.514952301979064941e-01 -9.633719921112060547e-02 4.994024708867073059e-02
-3.654586076736450195e-01 -1.300210356712341309e-01 4.234687983989715576e-02
2.472974658012390137e-01 -6.611736863851547241e-02 1.503766030073165894e-01
-1.489713937044143677e-01 1.029426008462905884e-01 -1.363779753446578979e-01
-3.676935434341430664e-01 1.333816349506378174e-01 -1.023927051573991776e-02
2.357207834720611572e-01 1.490252763032913208e-01 6.927046924829483032e-02
-1.632408350706100464e-01 -1.012062728404998779e-01 -1.467304229736328125e-01
-5.348197221755981445e-01 -3.218183293938636780e-02 -1.260739658027887344e-02
8.908019959926605225e-02 1.711046993732452393e-01 -4.192073270678520203e-02
-3.684482872486114502e-01 1.313651502132415771e-01 3.367326781153678894e-02
-5.214341878890991211e-01 -7.341003976762294769e-03 -5.056928470730781555e-02
3.982842862606048584e-01 9.204032272100448608e-02 8.384516090154647827e-02
7.635317742824554443e-02 -1.858444213867187500e-01 1.110353227704763412e-02
7.988453656435012817e-02 3.139743208885192871e-02 -1.757227778434753418e-01
7.769948989152908325e-02 1.309995055198669434e-01 -1.164554059505462646e-01
4.786349236965179443e-01 -8.699203282594680786e-02 3.699665516614913940e-02
-3.162191510200500488e-01 8.205035701394081116e-03 -1.467244178056716919e-01
-1.004306823015213013e-01 5.419372767210006714e-02 -1.675482839345932007e-01
2.497680485248565674e-01 1.648533716797828674e-02 -1.604681164026260376e-01
-1.493612229824066162e-01 -2.843316085636615753e-02 -1.738047003746032715e-01
-3.507516086101531982e-01 -1.389869004487991333e-01 -3.338207677006721497e-02
-1.110644415020942688e-01 -9.167958796024322510e-02 -1.579515784978866577e-01
-1.494550704956054688e-02 3.176364302635192871e-02 -1.774364709854125977e-01
-9.407351166009902954e-02 1.111754775047302246e-02 1.814518719911575317e-01
1.745546162128448486e-01 -3.440527617931365967e-02 1.708826124668121338e-01
-4.044930934906005859e-01 -2.809197455644607544e-02 -1.187515705823898315e-01
-1.192291676998138428e-01 6.381589174270629883e-02 -1.623248606920242310e-01
-3.006581366062164307e-01 1.387677937746047974e-01 -5.490538477897644043e-02
-2.311194986104965210e-01 -1.494260281324386597e-01 7.393747568130493164e-02
7.144851982593536377e-02 -1.512142121791839600e-01 -1.120323315262794495e-01
-1.595863848924636841e-01 -1.391811370849609375e-01 1.069236099720001221e-01
4.584508836269378662e-01 -2.873576991260051727e-02 9.745696187019348145e-02
4.330744035542011261e-03 -9.834350645542144775e-02 1.547548770904541016e-01
-6.037674471735954285e-02 3.548441827297210693e-02 -1.754059493541717529e-01
2.747913002967834473e-01 7.371119409799575806e-02 -1.346190422773361206e-01
