-6.811086833477020264e-02 5.017751082777976990e-02 -1.483605150133371353e-02
-1.588389463722705841e-02 -3.143325448036193848e-02 -1.617740467190742493e-02
-1.649959757924079895e-02 3.649728596210479736e-01 1.433764211833477020e-02
8.760379999876022339e-02 -2.574015855789184570e-01 -1.395117025822401047e-02
3.598451986908912659e-02 5.081736296415328979e-02 -1.545608788728713989e-02
1.933008804917335510e-02 9.329481422901153564e-02 -1.573906838893890381e-02
-1.190027967095375061e-02 -2.158619463443756104e-01 -1.526854000985622406e-02
1.570766717195510864e-01 -1.611492335796356201e-01 2.812072169035673141e-03
5.490683950483798981e-03 6.340829730033874512e-01 -3.806553781032562256e-03
-1.080147624015808105e-01 3.075083494186401367e-01 1.322975195944309235e-02
-1.583999246358871460e-01 6.614778637886047363e-01 -3.506187349557876587e-03
9.733748435974121094e-02 -5.928105711936950684e-01 -1.083595119416713715e-02
1.648074090480804443e-01 -5.938599109649658203e-01 -3.144729183986783028e-03
-8.035981655120849609e-02 -3.018133044242858887e-01 9.074855595827102661e-03
7.134169340133666992e-02 -4.695753157138824463e-01 -1.325019821524620056e-02
1.658072024583816528e-01 -5.504206418991088867e-01 -3.684286028146743774e-03
-4.986853897571563721e-02 6.805138587951660156e-01 8.045009337365627289e-03
-3.163870424032211304e-02 -5.592681169509887695e-01 6.552049424499273300e-03
-2.881934121251106262e-02 1.690477430820465088e-01 -1.590152643620967865e-02
2.824214845895767212e-02 -6.250073909759521484e-01 1.018659211695194244e-02
-1.442077457904815674e-01 1.226095110177993774e-02 5.230814218521118164e-03
6.130298227071762085e-02 3.575441837310791016e-01 8.508901111781597137e-03
-2.055829949676990509e-02 2.735478281974792480e-01 1.546906121075153351e-02
1.099559739232063293e-01 -3.920029103755950928e-01 -1.225701160728931427e-02
-3.755012527108192444e-02 3.110248446464538574e-01 -1.501402352005243301e-02
5.382879078388214111e-02 2.231081426143646240e-01 1.275561377406120300e-02
-9.060620330274105072e-03 5.743626356124877930e-01 9.226606227457523346e-03
1.268693655729293823e-01 -5.585954785346984863e-01 1.010031905025243759e-02
-7.555723190307617188e-02 6.422929763793945312e-01 1.001171488314867020e-02
7.737724483013153076e-02 -6.414698362350463867e-01 -1.027553062885999680e-02
1.046121045947074890e-01 -2.793714106082916260e-01 -1.286941394209861755e-02
-1.606538891792297363e-01 1.374984085559844971e-01 3.377104876562952995e-03
7.584406435489654541e-02 2.933107912540435791e-01 -8.246354758739471436e-03
1.081215292215347290e-01 -7.453618049621582031e-01 -6.593037396669387817e-03
6.410812586545944214e-02 1.696563959121704102e-01 1.277211029082536697e-02
-9.156571328639984131e-02 4.837339520454406738e-01 1.276139263063669205e-02
-9.289572387933731079e-02 3.558655381202697754e-01 1.385510154068470001e-02
-5.911325290799140930e-02 4.945193827152252197e-01 1.305269636213779449e-02
1.041054353117942810e-01 -7.870754003524780273e-01 5.419779568910598755e-03
6.876100599765777588e-02 2.047296464443206787e-01 -1.150154508650302887e-02
1.776611432433128357e-02 4.502108395099639893e-01 -1.067611668258905411e-02
9.408244490623474121e-02 -1.117563620209693909e-01 1.343175861984491348e-02
6.828814744949340820e-02 -1.509307026863098145e-01 1.520934607833623886e-02
-9.414517879486083984e-02 1.415823996067047119e-01 -1.367643848061561584e-02
-4.900673031806945801e-02 -1.058212891221046448e-01 -1.478416565805673599e-02
2.809280529618263245e-02 4.173382818698883057e-01 1.076572760939598083e-02
-9.104214608669281006e-02 4.653193652629852295e-01 1.299534365534782410e-02
1.124220415949821472e-01 8.360295742750167847e-02 -8.063959889113903046e-03
9.989866614341735840e-02 1.877183914184570312e-01 -7.348261773586273193e-03
-6.893435120582580566e-02 3.866268396377563477e-01 -1.409670896828174591e-02
-2.586678229272365570e-02 -4.152327477931976318e-01 1.217273995280265808e-02
-2.989101968705654144e-02 -4.633768796920776367e-01 -1.002614200115203857e-02
-4.365406930446624756e-02 5.720914602279663086e-01 1.123432908207178116e-02
-2.148974454030394554e-03 -5.823541879653930664e-01 -8.825362659990787506e-03
-5.013106763362884521e-02 -3.800176978111267090e-01 1.081656105816364288e-02
4.207608476281166077e-02 -3.583883941173553467e-01 1.515015028417110443e-02
-6.675945222377777100e-02 5.869997292757034302e-02 -1.493733935058116913e-02
-1.106481179594993591e-01 5.422335863113403320e-01 -1.100981701165437698e-02
-1.315270215272903442e-01 -5.014794319868087769e-02 -6.314986385405063629e-03
-5.187005922198295593e-02 1.102997511625289917e-01 -1.561519876122474670e-02
-7.455614954233169556e-02 -7.455380260944366455e-02 -1.351651083678007126e-02
1.543456166982650757e-01 -1.148790419101715088e-01 -1.330702565610408783e-03
-9.259638190269470215e-02 2.081428766250610352e-01 -1.392297446727752686e-02
1.500399857759475708e-01 -5.712613463401794434e-01 -6.863801740109920502e-03
-1.371144801378250122e-01 2.611874639987945557e-01 -1.014750823378562927e-02
-6.990595906972885132e-02 6.302078366279602051e-01 -1.015231758356094360e-02
2.789235487580299377e-02 -3.471321463584899902e-01 -1.476234570145606995e-02
-9.941318072378635406e-03 -5.838337540626525879e-01 -7.956266403198242188e-03
-1.058095097541809082e-01 -2.394609451293945312e-01 -5.599820986390113831e-03
-5.234209820628166199e-02 -1.894991286098957062e-02 1.563369296491146088e-02
5.522746592760086060e-02 2.497735619544982910e-01 -1.195458043366670609e-02
-1.067848354578018188e-01 7.434746623039245605e-01 6.256641354411840439e-03
1.018959283828735352e-02 -1.116791740059852600e-03 -1.622807979583740234e-02
-9.063155204057693481e-02 5.959908366203308105e-01 -1.080874167382717133e-02
-7.004132866859436035e-02 5.385217070579528809e-01 -1.212093885987997055e-02
1.516994461417198181e-02 -3.658087253570556641e-01 1.484776102006435394e-02
4.452814534306526184e-02 3.404626548290252686e-01 1.115547213703393936e-02
6.684633437544107437e-03 -5.817470550537109375e-01 1.017571520060300827e-02
-1.349691003561019897e-01 3.286429047584533691e-01 -1.055984385311603546e-02
7.594357430934906006e-02 4.553099349141120911e-02 1.348167844116687775e-02
-7.767169922590255737e-02 -2.220667898654937744e-01 -1.096384413540363312e-02
-2.929420396685600281e-02 -1.208008900284767151e-01 1.590245217084884644e-02
-1.235768795013427734e-01 -6.668542325496673584e-02 8.150473237037658691e-03
4.800476878881454468e-02 -7.552832365036010742e-02 -1.553397811949253082e-02
-5.859480798244476318e-02 3.027326762676239014e-01 1.518698502331972122e-02
-9.215467423200607300e-02 -7.795459125190973282e-03 -1.279693469405174255e-02
1.317838281393051147e-01 8.984459564089775085e-03 -5.795750766992568970e-03
1.292361617088317871e-01 -1.606805622577667236e-01 1.001264713704586029e-02
3.094314225018024445e-02 -4.121152460575103760e-01 -1.404690183699131012e-02
-7.648988813161849976e-02 5.930349826812744141e-01 1.120819244533777237e-02
5.425798892974853516e-02 2.874992489814758301e-01 1.142430305480957031e-02
-1.582935154438018799e-01 5.904532074928283691e-01 -5.580039694905281067e-03
1.019582971930503845e-01 -5.130828022956848145e-01 -1.177096646279096603e-02
1.367180943489074707e-01 -5.026819705963134766e-01 -9.296237491071224213e-03
-1.789841055870056152e-02 5.756847560405731201e-02 -1.621825248003005981e-02
1.067338585853576660e-01 6.036178767681121826e-02 -9.598712436854839325e-03
5.559273809194564819e-02 3.943020999431610107e-01 8.034058846533298492e-03
6.982806324958801270e-02 1.716990396380424500e-02 1.422688458114862442e-02
-8.351515978574752808e-02 3.191474378108978271e-01 1.443400606513023376e-02
4.810523986816406250e-02 5.134136676788330078e-01 1.049491344019770622e-03
5.345855280756950378e-02 -5.496471524238586426e-01 1.267462968826293945e-02
1.244856044650077820e-01 -1.942223310470581055e-01 1.097451150417327881e-02
7.902833819389343262e-02 -4.616577550768852234e-02 -1.382668968290090561e-02
6.151568889617919922e-02 3.263705372810363770e-01 9.525547735393047333e-03
2.227439731359481812e-02 -1.040469780564308167e-01 -1.610875315964221954e-02
-7.383164018392562866e-02 -1.582264602184295654e-01 1.298387069255113602e-02
4.812064021825790405e-02 -6.601328253746032715e-01 9.961702860891819000e-03
-1.471720486879348755e-01 2.786606252193450928e-01 -8.817235939204692841e-03
5.507492646574974060e-02 -5.051558613777160645e-01 -1.290910691022872925e-02
1.434291750192642212e-01 -1.517601907253265381e-01 -7.041937671601772308e-03
9.418975561857223511e-03 4.154567420482635498e-01 -1.214052923023700714e-02
7.128536701202392578e-02 -5.954797267913818359e-01 1.182968262583017349e-02
-1.673927158117294312e-01 3.731555938720703125e-01 5.525385495275259018e-03
1.599681191146373749e-02 -4.162537753582000732e-01 1.419752836227416992e-02
-3.168298304080963135e-02 -9.489626437425613403e-02 -1.556627452373504639e-02
8.373948186635971069e-02 -4.934946075081825256e-02 -1.350864488631486893e-02
-8.554071187973022461e-02 5.234386324882507324e-01 1.237033214420080185e-02
-1.719517409801483154e-01 3.427523076534271240e-01 3.656358923763036728e-03
2.534526214003562927e-02 9.793870151042938232e-02 1.580943726003170013e-02
-8.258260786533355713e-02 -2.390593290328979492e-01 -9.971274062991142273e-03
9.317661076784133911e-02 -3.998394310474395752e-01 -1.317300181835889816e-02
-1.701132394373416901e-02 -2.227611467242240906e-02 1.655155979096889496e-02
1.263917833566665649e-01 -6.615868806838989258e-01 8.408662863075733185e-03
5.120109301060438156e-03 6.496978998184204102e-01 -1.811858965083956718e-03
-9.781844913959503174e-02 3.089954555034637451e-01 -1.352254021912813187e-02
6.015202403068542480e-02 -7.249976396560668945e-01 -7.490842137485742569e-03
-5.089555308222770691e-02 8.496138453483581543e-02 1.598069258034229279e-02
-1.346676647663116455e-01 2.339870333671569824e-01 1.070070359855890274e-02
-1.206623390316963196e-02 -4.797949492931365967e-01 1.166818756610155106e-02
-1.052273996174335480e-02 1.670420765876770020e-01 1.614946313202381134e-02
-5.746731534600257874e-02 -3.880666196346282959e-01 9.696190245449542999e-03
6.374571472406387329e-02 -3.792942464351654053e-01 1.472111511975526810e-02
-1.151885315775871277e-01 -1.067983880639076233e-01 8.726065047085285187e-03
3.091408871114253998e-03 -4.232653379440307617e-01 1.366008631885051727e-02
-1.099146381020545959e-01 7.129293680191040039e-01 -7.222629617899656296e-03
-1.180848702788352966e-01 -1.313850879669189453e-01 7.401885464787483215e-03
-3.968199342489242554e-02 1.585063636302947998e-01 -1.583029143512248993e-02
3.716417029500007629e-02 1.551879346370697021e-01 1.481075957417488098e-02
2.832828462123870850e-02 1.309022009372711182e-01 1.544655207544565201e-02
-2.206633612513542175e-02 3.478646576404571533e-01 1.469447091221809387e-02
-4.884368926286697388e-02 5.235981345176696777e-01 1.243098173290491104e-02
3.449263796210289001e-02 -5.941162109375000000e-01 1.132560800760984421e-02
7.763879839330911636e-03 -4.066489636898040771e-03 1.659006252884864807e-02
-2.845608815550804138e-02 -2.324507534503936768e-01 -1.449517998844385147e-02
8.789917081594467163e-02 -4.534000754356384277e-01 1.342144887894392014e-02
9.541244059801101685e-02 -8.718644827604293823e-02 1.313894148916006088e-02
-9.777016192674636841e-02 7.438236847519874573e-03 -1.244583725929260254e-02
-9.772054851055145264e-02 7.420930862426757812e-01 6.523853633552789688e-03
1.007497310638427734e-01 -4.306506514549255371e-01 1.301585882902145386e-02
9.549575299024581909e-02 -6.616008877754211426e-01 1.003561820834875107e-02
1.125084683299064636e-01 -2.782640792429447174e-02 -1.034518424421548843e-02
4.009653255343437195e-02 -4.010061025619506836e-01 1.473172660917043686e-02
-1.051374301314353943e-01 7.607631683349609375e-01 5.447430070489645004e-03
-1.390614658594131470e-01 9.288892894983291626e-02 -8.123448118567466736e-03
7.439499255269765854e-03 -4.683455526828765869e-01 1.302557345479726791e-02
-3.975543752312660217e-02 7.494398206472396851e-02 -1.590614579617977142e-02
1.627388447523117065e-01 -2.417649328708648682e-01 -2.759036840870976448e-03
1.214797049760818481e-01 -4.062105715274810791e-01 1.171371713280677795e-02
-2.616674639284610748e-02 1.312054991722106934e-01 -1.603883132338523865e-02
1.644809395074844360e-01 -5.016540884971618652e-01 5.030527710914611816e-03
-7.592158764600753784e-02 -4.114391803741455078e-01 -4.394388757646083832e-03
-1.002294942736625671e-01 3.136400580406188965e-01 -1.337531115859746933e-02
-1.255115568637847900e-01 -1.468028128147125244e-01 4.493380431085824966e-03
-1.705038845539093018e-01 5.404487252235412598e-01 3.665034892037510872e-03
-3.943426907062530518e-02 3.367973268032073975e-01 1.502168085426092148e-02
3.524455055594444275e-02 -1.529076993465423584e-01 1.623828522861003876e-02
-4.656715691089630127e-02 7.348694801330566406e-01 -4.757428541779518127e-03
6.173408776521682739e-02 -5.775760412216186523e-01 -1.166348438709974289e-02
-1.072592064738273621e-01 2.917688488960266113e-01 1.331039518117904663e-02
6.963461637496948242e-02 -1.675077378749847412e-01 1.517406292259693146e-02
-2.795250713825225830e-02 6.240826249122619629e-01 8.887330070137977600e-03
-6.151940301060676575e-02 6.669469922780990601e-02 1.557657867670059204e-02
-1.153826788067817688e-01 5.009154677391052246e-01 1.150968950241804123e-02
2.958964370191097260e-02 1.130827218294143677e-01 -1.528019830584526062e-02
-6.547418981790542603e-02 -1.176376789808273315e-01 -1.369332894682884216e-02
-1.254299134016036987e-01 1.664980053901672363e-01 -1.100060995668172836e-02
-1.095367074012756348e-01 -2.150916159152984619e-01 -5.716907326132059097e-03
3.492681682109832764e-02 3.234074115753173828e-01 1.240172050893306732e-02
-8.152018487453460693e-02 2.781201303005218506e-01 -1.438236702233552933e-02
-1.138553917407989502e-01 2.750250995159149170e-01 1.285078469663858414e-02
2.499979175627231598e-02 3.381349742412567139e-01 1.284234784543514252e-02
-1.416101604700088501e-01 4.519815742969512939e-01 9.783877059817314148e-03
-5.844183638691902161e-02 -1.360537856817245483e-01 1.441604364663362503e-02
-2.810845710337162018e-02 -5.243288874626159668e-01 8.744078688323497772e-03
7.344762980937957764e-02 1.125726103782653809e-01 -1.260223705321550369e-02
5.787101015448570251e-02 -6.994717568159103394e-02 -1.513556670397520065e-02
7.363167405128479004e-02 -1.010704040527343750e-01 1.477779261767864227e-02
1.301781535148620605e-01 -7.889638543128967285e-01 -2.303665736690163612e-03
-2.011881396174430847e-02 -5.029200911521911621e-01 1.036673691123723984e-02
5.782538559287786484e-03 3.090741857886314392e-02 1.654225401580333710e-02
-8.689587935805320740e-03 -5.221300721168518066e-01 1.079278159886598587e-02
-4.526665434241294861e-02 -3.360236287117004395e-01 -1.178482640534639359e-02
-1.421235501766204834e-01 4.698601961135864258e-01 -9.316456504166126251e-03
6.322965770959854126e-02 -7.934429645538330078e-01 -3.747500479221343994e-03
-1.430565714836120605e-01 7.430967092514038086e-01 2.751688705757260323e-03
9.397590160369873047e-02 2.668848931789398193e-01 -5.323732271790504456e-03
-4.811299964785575867e-02 1.278859972953796387e-01 1.605075597763061523e-02
-1.057460457086563110e-01 2.080092430114746094e-01 -1.304611843079328537e-02
-5.454608798027038574e-02 5.824552476406097412e-02 -1.544845663011074066e-02
2.275927178561687469e-02 -5.015688538551330566e-01 -1.242761127650737762e-02
4.812005907297134399e-03 4.554325714707374573e-02 -1.619528047740459442e-02
-1.136721074581146240e-01 -5.542081594467163086e-02 -9.644637815654277802e-03
8.289037644863128662e-02 -7.413643002510070801e-01 7.836982607841491699e-03
2.881477028131484985e-02 5.642492771148681641e-01 -3.720967331901192665e-03
-2.699200995266437531e-03 -3.085269331932067871e-01 -1.458877697587013245e-02
-9.129760414361953735e-02 4.255151450634002686e-01 1.339536905288696289e-02
-6.528682261705398560e-02 2.467899918556213379e-01 -1.503531262278556824e-02
3.624874725937843323e-02 -3.059281408786773682e-01 -1.514915470033884048e-02
3.282269090414047241e-02 9.689172729849815369e-04 1.609857194125652313e-02
1.674963086843490601e-01 -3.506424427032470703e-01 3.444556845352053642e-03
5.286630243062973022e-02 1.347509324550628662e-01 -1.389386691153049469e-02
-7.490362226963043213e-02 4.153009057044982910e-01 -1.370999496430158615e-02
-6.317339092493057251e-02 6.924237012863159180e-01 8.152387104928493500e-03
-1.596321165561676025e-01 3.311547338962554932e-01 7.212895900011062622e-03
6.430270522832870483e-02 -2.722774446010589600e-01 -1.488645933568477631e-02
-7.526472955942153931e-02 5.146476626396179199e-01 1.266857702285051346e-02
-2.736655250191688538e-02 6.790697574615478516e-01 6.311260629445314407e-03
1.088428050279617310e-01 9.730465710163116455e-02 8.563166484236717224e-03
5.459697544574737549e-02 -7.494344711303710938e-01 6.701104808598756790e-03
1.950105465948581696e-02 -1.707462370395660400e-01 -1.595417782664299011e-02
1.724792644381523132e-02 -6.005485057830810547e-01 -9.723703376948833466e-03
-4.890587180852890015e-02 -4.901259243488311768e-01 -6.382634863257408142e-03
6.676038354635238647e-02 -2.587234973907470703e-01 -1.485309097915887833e-02
1.263328194618225098e-01 -4.715348482131958008e-01 1.096080336719751358e-02
-1.181048601865768433e-01 1.335927546024322510e-01 -1.156886667013168335e-02
5.878993123769760132e-02 -3.578804731369018555e-01 -1.453723758459091187e-02
1.098177358508110046e-01 9.693823754787445068e-03 1.033579185605049133e-02
1.414395421743392944e-01 -5.419646501541137695e-01 8.819228969514369965e-03
-1.382842808961868286e-01 2.723917961120605469e-01 -1.004560105502605438e-02
-1.212742030620574951e-01 7.229087948799133301e-01 6.417296361178159714e-03
-6.829117238521575928e-02 6.703889369964599609e-02 1.527916733175516129e-02
2.607185207307338715e-02 -2.676514983177185059e-01 1.586229726672172546e-02
1.097393110394477844e-01 -9.467471390962600708e-02 -1.151936315000057220e-02
1.212682947516441345e-01 -5.492848753929138184e-01 -1.019767206162214279e-02
-1.610016450285911560e-02 -1.486138999462127686e-01 -1.567015238106250763e-02
9.797938913106918335e-02 -7.445524334907531738e-01 -6.967802532017230988e-03
2.357233501970767975e-02 2.578416764736175537e-01 1.424864400178194046e-02
-1.991892606019973755e-02 1.989448666572570801e-01 1.603470183908939362e-02
2.018675394356250763e-02 -1.631357669830322266e-01 -1.598084345459938049e-02
-1.563738435506820679e-01 3.434922397136688232e-01 -7.549616508185863495e-03
6.965221371501684189e-03 -6.461232304573059082e-01 -7.112200837582349777e-03
-9.101431816816329956e-02 7.922488451004028320e-01 -3.200847655534744263e-03
-2.908111317083239555e-03 -6.238384842872619629e-01 -7.008113432675600052e-03
1.390245705842971802e-01 -1.900209486484527588e-01 -8.503130637109279633e-03
-1.220458298921585083e-01 3.032036721706390381e-01 -1.183162909001111984e-02
-1.980525813996791840e-02 -4.966919720172882080e-01 1.058312878012657166e-02
-1.573078930377960205e-01 3.063234984874725342e-01 7.553494069725275040e-03
1.462920904159545898e-01 -5.276625156402587891e-01 -7.912538014352321625e-03
-9.116885811090469360e-02 2.636448740959167480e-01 1.429898198693990707e-02
-3.429668396711349487e-02 3.457108438014984131e-01 -1.466717850416898727e-02
-1.170313730835914612e-01 3.539447784423828125e-01 1.246974524110555649e-02
-1.304796189069747925e-01 2.757285833358764648e-01 1.133162435144186020e-02
-7.169605046510696411e-02 6.231226921081542969e-01 -1.034671347588300705e-02
-9.301058948040008545e-02 -1.798280328512191772e-02 1.305699907243251801e-02
1.016875207424163818e-01 -7.694678306579589844e-01 -5.823997315019369125e-03
3.022311069071292877e-02 -7.535097599029541016e-01 -3.117410000413656235e-03
-1.397559791803359985e-01 3.570004403591156006e-01 1.034194603562355042e-02
-1.108276769518852234e-01 7.059569358825683594e-01 -7.424378301948308945e-03
-6.519482284784317017e-02 4.814376235008239746e-01 1.325056795030832291e-02
9.850977361202239990e-02 1.390834450721740723e-01 -9.075243957340717316e-03
2.761348895728588104e-02 -7.305666804313659668e-01 -4.725733771920204163e-03
1.300204992294311523e-01 -3.283459693193435669e-02 -7.459593936800956726e-03
-5.329838395118713379e-02 -3.174895644187927246e-01 -1.145643182098865509e-02
2.015717513859272003e-02 -6.217870712280273438e-01 -9.222794324159622192e-03
1.385993361473083496e-01 -9.371208399534225464e-02 -6.955099757760763168e-03
-4.503973945975303650e-02 7.771277427673339844e-02 1.613589562475681305e-02
3.072200156748294830e-02 2.203854024410247803e-01 -1.415809709578752518e-02
-4.275391995906829834e-02 -5.670496821403503418e-01 -1.933410763740539551e-03
-5.770595371723175049e-02 5.942252874374389648e-01 1.103817485272884369e-02
-2.542938478291034698e-02 -4.607689678668975830e-01 1.109069585800170898e-02
-9.565019048750400543e-03 -1.795230209827423096e-01 -1.561377942562103271e-02
-5.140907689929008484e-02 2.719161808490753174e-01 1.548689976334571838e-02
-8.738643676042556763e-02 -2.269254922866821289e-01 -9.614775888621807098e-03
4.095237329602241516e-02 -4.472164511680603027e-01 1.417841296643018723e-02
-9.797664359211921692e-03 6.053318977355957031e-01 8.077272213995456696e-03
-6.531331688165664673e-02 -1.707784533500671387e-01 1.350984349846839905e-02
2.442086674273014069e-02 -3.037778735160827637e-01 -1.514193601906299591e-02
1.071004644036293030e-01 -1.230106726288795471e-01 -1.204929221421480179e-02
-1.190080121159553528e-02 -4.979324340820312500e-01 1.121277455240488052e-02
1.376256942749023438e-01 -2.588826417922973633e-01 -9.370124898850917816e-03
-7.478033006191253662e-02 4.321840703487396240e-01 1.377296540886163712e-02
1.178655847907066345e-01 -7.709578871726989746e-01 5.484698340296745300e-03
5.111973732709884644e-02 -1.419340670108795166e-01 1.586136966943740845e-02
-1.276652663946151733e-01 6.416944265365600586e-01 -8.213005959987640381e-03
5.183456838130950928e-02 -6.957728266716003418e-01 8.905126713216304779e-03
1.352166980504989624e-01 -1.000423058867454529e-01 -7.823429070413112640e-03
3.569857031106948853e-02 2.366701662540435791e-01 -1.365469023585319519e-02
1.129919365048408508e-01 -5.195379257202148438e-01 1.155105140060186386e-02
1.095950230956077576e-01 1.279881596565246582e-01 -7.307651918381452560e-03
-1.440276503562927246e-01 1.083829924464225769e-01 -7.405124604701995850e-03
-2.208413928747177124e-02 -6.062762737274169922e-01 5.488439463078975677e-03
-7.245555520057678223e-02 -2.090875506401062012e-01 1.228064764291048050e-02
1.405215710401535034e-01 -3.677183687686920166e-01 9.714761748909950256e-03
1.090040206909179688e-01 6.252309679985046387e-02 9.398546069860458374e-03
6.054818630218505859e-02 2.489616870880126953e-01 -1.145391259342432022e-02
-2.572081238031387329e-02 -2.638034522533416748e-01 1.472548022866249084e-02
-1.598422676324844360e-01 2.502151131629943848e-01 -6.050020921975374222e-03
-3.912287205457687378e-02 -5.687515735626220703e-01 3.969733603298664093e-03
-1.176926046609878540e-01 -3.252507746219635010e-02 9.952208027243614197e-03
-4.179788753390312195e-03 -4.554371535778045654e-01 1.271494850516319275e-02
-1.575658917427062988e-01 3.923499882221221924e-01 -7.414675317704677582e-03
-3.587415814399719238e-02 3.291261494159698486e-01 1.508152205497026443e-02
6.018024310469627380e-02 -4.853908717632293701e-01 -1.318370178341865540e-02
-4.625258035957813263e-03 -6.499133110046386719e-01 5.908810999244451523e-03
-7.090840488672256470e-02 -1.831469237804412842e-01 -1.236755400896072388e-02
-1.154865771532058716e-01 -1.689352691173553467e-01 -6.121459882706403732e-03
-1.291138827800750732e-01 1.355376839637756348e-01 -1.027065049856901169e-02
-5.683996714651584625e-03 -5.890608206391334534e-02 1.659618690609931946e-02
-5.208675190806388855e-02 -1.510250568389892578e-01 1.464044302701950073e-02
2.684151194989681244e-02 -4.215622246265411377e-01 1.435513049364089966e-02
-7.119972258806228638e-02 3.131812512874603271e-01 1.485633850097656250e-02
9.360443055629730225e-02 -1.541137993335723877e-01 1.370919868350028992e-02
7.657948415726423264e-03 -2.928283512592315674e-01 -1.502021495252847672e-02
-7.945474982261657715e-02 4.829654395580291748e-01 1.306779775768518448e-02
1.202292591333389282e-01 -5.833056569099426270e-01 -9.809057228267192841e-03
-1.456754058599472046e-01 4.131088033318519592e-02 -5.313261877745389938e-03
6.311593949794769287e-02 -7.591799497604370117e-01 -6.019531749188899994e-03
1.493289880454540253e-02 3.338530659675598145e-01 1.353919785469770432e-02
6.733845919370651245e-02 -5.757237076759338379e-01 1.222250889986753464e-02
-1.018691360950469971e-01 4.840028285980224609e-02 -1.246702857315540314e-02
8.331137895584106445e-02 -2.818268537521362305e-01 -1.413212995976209641e-02
-1.016734018921852112e-01 -2.390190362930297852e-01 7.221846841275691986e-03
-9.716007113456726074e-02 -2.453084290027618408e-01 7.955666631460189819e-03
6.874506827443838120e-03 2.984542250633239746e-01 1.446247007697820663e-02
5.786293745040893555e-02 -1.978178024291992188e-01 -1.526646409183740616e-02
1.127013415098190308e-01 1.778247058391571045e-01 4.308106377720832825e-03
-2.507060999050736427e-03 1.391063332557678223e-01 1.621073298156261444e-02
5.643665790557861328e-02 3.399446308612823486e-01 9.797668084502220154e-03
-8.216777816414833069e-03 -4.183720350265502930e-01 1.322526205331087112e-02
1.197773590683937073e-02 5.092383027076721191e-01 9.534735232591629028e-03
1.375798881053924561e-01 -2.042587287724018097e-02 -5.066046491265296936e-03
-8.276559412479400635e-02 -7.744933664798736572e-02 1.328613050282001495e-02
1.497218459844589233e-01 -6.487960815429687500e-01 5.927043035626411438e-03
6.473387032747268677e-02 8.275451511144638062e-02 1.391632761806249619e-02
-1.554717272520065308e-01 5.736622214317321777e-02 -1.042286050505936146e-03
-1.581765115261077881e-01 4.656481742858886719e-01 7.402511779218912125e-03
1.592628061771392822e-01 -3.197242319583892822e-01 -5.649011116474866867e-03
-5.199889466166496277e-02 4.054068922996520996e-01 1.429160311818122864e-02
1.348550766706466675e-01 -3.512683808803558350e-01 -1.006445381790399551e-02
-1.066489592194557190e-01 2.677073478698730469e-01 -1.304284483194351196e-02
-1.626339554786682129e-01 3.415342569351196289e-01 -6.236974149942398071e-03
-2.480974048376083374e-02 6.161130666732788086e-01 -8.855527266860008240e-03
1.520757228136062622e-01 -3.897874653339385986e-01 -7.594661321491003036e-03
-2.068068832159042358e-02 4.676608368754386902e-02 1.654530502855777740e-02
1.508081853389739990e-01 -1.682365536689758301e-01 5.721644964069128036e-03
4.995687678456306458e-02 -4.787957668304443359e-01 1.378932408988475800e-02
7.813199609518051147e-02 2.203663885593414307e-01 -1.004381757229566574e-02
7.626207079738378525e-03 -3.325513005256652832e-02 -1.626683585345745087e-02
9.133216738700866699e-02 -1.442676503211259842e-02 -1.255646161735057831e-02
1.286975480616092682e-02 -9.134981036186218262e-02 1.656239666044712067e-02
6.178183853626251221e-02 -3.778495192527770996e-01 -1.432757172733545303e-02
-9.366217255592346191e-02 3.024406731128692627e-01 1.406738907098770142e-02
-9.232227504253387451e-02 -2.436667978763580322e-01 8.910096250474452972e-03
-2.523720264434814453e-02 -1.632920503616333008e-01 -1.529697794467210770e-02
2.919616736471652985e-02 1.353066563606262207e-01 -1.511816773563623428e-02
-2.401393093168735504e-02 1.741288602352142334e-01 -1.589328609406948090e-02
1.555612087249755859e-01 -3.292032778263092041e-01 6.973372306674718857e-03
-3.475815430283546448e-02 6.447991132736206055e-01 8.563986979424953461e-03
4.524396732449531555e-02 -6.710104942321777344e-01 -8.920009247958660126e-03
2.293413970619440079e-03 -5.320298075675964355e-01 1.131126098334789276e-02
-5.776166915893554688e-02 -2.569221854209899902e-01 1.277158223092556000e-02
1.201263368129730225e-01 -7.045833468437194824e-01 -7.269188761711120605e-03
6.569813936948776245e-02 3.000890612602233887e-01 9.737377054989337921e-03
-6.426899880170822144e-02 -1.397336125373840332e-01 -1.351666916161775589e-02
5.485528707504272461e-02 -5.909053683280944824e-01 -1.133469771593809128e-02
5.953414831310510635e-03 -4.806330502033233643e-01 -1.216880511492490768e-02
7.604238390922546387e-02 1.895310357213020325e-02 1.375924702733755112e-02
-6.496268510818481445e-02 -1.935624480247497559e-01 1.320877764374017715e-02
7.173658162355422974e-02 -7.711437344551086426e-01 6.316041573882102966e-03
-2.210545726120471954e-02 6.081984937191009521e-02 -1.618296280503273010e-02
5.223857238888740540e-02 2.264369130134582520e-01 -1.263803802430629730e-02
-1.001254618167877197e-01 7.902877330780029297e-01 -3.415989689528942108e-03
-1.329057849943637848e-02 3.721311092376708984e-01 -1.394475158303976059e-02
1.655869930982589722e-01 -4.841253757476806641e-01 4.802948329597711563e-03
-1.024743728339672089e-02 -5.551145672798156738e-01 9.613927453756332397e-03
-7.430416345596313477e-02 -2.163895666599273682e-01 -1.144679728895425797e-02
9.814199805259704590e-02 -2.358289361000061035e-01 -1.329748705029487610e-02
1.228966340422630310e-01 1.105824261903762817e-01 -4.190393723547458649e-03
1.981975138187408447e-02 1.098999194800853729e-02 -1.606588438153266907e-02
-2.888494357466697693e-02 2.113634943962097168e-01 -1.570641435682773590e-02
1.928491052240133286e-03 3.293238878250122070e-01 1.422697119414806366e-02
-5.659427121281623840e-02 3.031453490257263184e-01 -1.494438480585813522e-02
4.985078796744346619e-02 9.002303704619407654e-04 -1.517583709210157394e-02
1.052059158682823181e-01 -3.989051580429077148e-01 1.293930411338806152e-02
5.599234253168106079e-02 -1.237198803573846817e-02 -1.496480777859687805e-02
6.738397479057312012e-02 3.201125562191009521e-01 -8.723002858459949493e-03
-5.617763381451368332e-03 -3.701840341091156006e-01 -1.364497561007738113e-02
6.750567350536584854e-03 5.285090208053588867e-01 -9.282928891479969025e-03
-3.628687560558319092e-02 7.377660870552062988e-01 -2.821699017658829689e-03
6.064960360527038574e-02 4.511599540710449219e-01 -3.206148510798811913e-03
3.124350868165493011e-02 -2.915377318859100342e-01 1.570059917867183685e-02
1.396082788705825806e-01 -7.672282457351684570e-01 -2.127519575878977776e-03
-5.277229100465774536e-02 -4.968686401844024658e-01 5.748524796217679977e-03
9.408236294984817505e-02 2.281356453895568848e-01 7.245945278555154800e-03
4.757674410939216614e-02 1.333163380622863770e-01 -1.423649769276380539e-02
9.168771654367446899e-02 -7.680733203887939453e-01 6.668144837021827698e-03
1.033924892544746399e-01 1.477543115615844727e-01 -7.960315793752670288e-03
-5.992328003048896790e-02 4.149784445762634277e-01 -1.392732001841068268e-02
-1.321200579404830933e-01 3.762405812740325928e-01 1.111859455704689026e-02
2.713927440345287323e-02 4.419184625148773193e-01 -1.002309750765562057e-02
-1.082999408245086670e-01 1.908581852912902832e-01 1.316915359348058701e-02
2.516201231628656387e-03 -5.566006898880004883e-01 -1.005982700735330582e-02
9.344181418418884277e-02 -6.348875164985656738e-01 -1.015707291662693024e-02
1.589654237031936646e-01 -5.988763570785522461e-01 -4.731606692075729370e-03
-1.269555687904357910e-01 4.318852126598358154e-01 1.131631992757320404e-02
7.529348880052566528e-02 8.170516788959503174e-02 -1.285899337381124496e-02
1.069897264242172241e-01 -3.541788160800933838e-01 1.298511307686567307e-02
1.044265702366828918e-01 2.519723773002624512e-01 -1.631714170798659325e-03
9.182819724082946777e-02 4.185479134321212769e-02 -1.181269343942403793e-02
-1.681603044271469116e-01 2.503891289234161377e-01 -3.172863973304629326e-03
6.508729606866836548e-02 -6.552246212959289551e-01 -9.903647005558013916e-03
1.194455474615097046e-02 4.889695942401885986e-01 -1.007570791989564896e-02
1.680233627557754517e-01 -3.193422555923461914e-01 2.353550400584936142e-03
-5.363068729639053345e-02 -3.310354650020599365e-01 1.166061218827962875e-02
-2.756148949265480042e-02 -3.806373775005340576e-01 -1.224335283041000366e-02
9.326239675283432007e-02 5.595331639051437378e-02 -1.144691091030836105e-02
-1.016647964715957642e-01 -8.320744335651397705e-02 -1.077578868716955185e-02
1.428965479135513306e-01 -3.871378302574157715e-01 9.400001727044582367e-03
4.176298156380653381e-02 1.700185835361480713e-01 1.438807696104049683e-02
-7.087453734129667282e-03 5.382001996040344238e-01 1.026768423616886139e-02
1.302525997161865234e-01 -6.284804940223693848e-01 8.749223314225673676e-03
-1.387281715869903564e-01 6.973614692687988281e-01 -5.624368321150541306e-03
-2.099315449595451355e-02 8.033078163862228394e-03 1.653818041086196899e-02
-1.592438519001007080e-01 6.475681662559509277e-01 4.062825348228216171e-03
-1.400544047355651855e-01 1.241310499608516693e-03 -5.678197834640741348e-03
-4.976460337638854980e-02 6.071580201387405396e-02 -1.561739481985569000e-02
7.714287191629409790e-02 -5.127294063568115234e-01 1.308287959545850754e-02
-1.209778711199760437e-01 5.445169210433959961e-01 1.061651483178138733e-02
-1.218052930198609829e-03 -4.712145030498504639e-01 -1.199822407215833664e-02
-3.607200831174850464e-02 -5.704006552696228027e-01 -4.153027199208736420e-03
1.112957149744033813e-01 -2.645168900489807129e-01 -1.233115233480930328e-02
-6.721349805593490601e-02 -2.456337213516235352e-01 -1.159692462533712387e-02
8.675245940685272217e-02 -1.094542369246482849e-01 -1.367531344294548035e-02
-6.691333651542663574e-02 -2.363365292549133301e-01 -1.180642563849687576e-02
2.152873948216438293e-02 1.769695281982421875e-01 1.529236510396003723e-02
8.678709715604782104e-02 -3.267987668514251709e-01 -1.383624132722616196e-02
-5.979889538139104843e-04 8.459761738777160645e-02 -1.613541319966316223e-02
-7.927451282739639282e-03 2.783263623714447021e-01 1.518606860190629959e-02
1.876061409711837769e-02 3.603219687938690186e-01 1.282829791307449341e-02
1.552087627351284027e-02 5.975823998451232910e-01 -4.501529503613710403e-03
1.763334311544895172e-02 -2.120121717453002930e-01 1.617342047393321991e-02
-4.158396273851394653e-02 -2.872388660907745361e-01 1.349448040127754211e-02
1.095172688364982605e-01 -6.281759738922119141e-01 -9.681180119514465332e-03
6.593970209360122681e-02 -8.515598624944686890e-02 1.512537151575088501e-02
-1.405025869607925415e-01 6.122958660125732422e-01 7.898896932601928711e-03
-4.339831694960594177e-02 -3.965561091899871826e-01 1.108800899237394333e-02
6.192300468683242798e-02 -1.185605973005294800e-01 1.542488951236009598e-02
1.346252392977476120e-03 3.517820239067077637e-01 -1.372010819613933563e-02
7.567715644836425781e-02 -6.813445687294006348e-01 9.806960821151733398e-03
-8.988970518112182617e-02 -1.693787872791290283e-01 -1.060629729181528091e-02
4.039639234542846680e-02 2.708814740180969238e-01 -1.279694028198719025e-02
-6.290831416845321655e-02 -9.901342540979385376e-02 1.451356429606676102e-02
-5.078249052166938782e-02 5.185041427612304688e-01 -1.238874066621065140e-02
6.202703714370727539e-02 -4.280933737754821777e-01 1.432008016854524612e-02
8.949466049671173096e-03 5.126777291297912598e-01 -9.604820981621742249e-03
-6.400366127490997314e-02 1.672628223896026611e-01 1.556706521660089493e-02
-6.847589462995529175e-02 1.830123066902160645e-01 1.539694424718618393e-02
-9.687016159296035767e-02 4.104588329792022705e-01 1.330627501010894775e-02
1.364599615335464478e-01 -1.794378459453582764e-01 -8.815934881567955017e-03
-1.278112977743148804e-01 4.841328263282775879e-01 1.083129458129405975e-02
5.367013439536094666e-02 1.830823123455047607e-01 -1.320699881762266159e-02
-4.897563159465789795e-02 2.652029395103454590e-01 -1.527834311127662659e-02
6.085571646690368652e-02 -1.964184045791625977e-01 1.553744263947010040e-02
7.269362360239028931e-02 1.039782911539077759e-01 1.301285717636346817e-02
-1.056652218103408813e-01 5.277766585350036621e-01 1.166659500449895859e-02
-1.575090438127517700e-01 5.057505965232849121e-01 -6.913666147738695145e-03
1.577268540859222412e-01 -5.185499191284179688e-01 6.515291519463062286e-03
-2.658289670944213867e-02 2.586479485034942627e-01 1.565513759851455688e-02
-6.379671860486268997e-03 -3.050304055213928223e-01 -1.451185718178749084e-02
-2.630277350544929504e-02 -1.781160533428192139e-01 -1.513431221246719360e-02
-1.575885340571403503e-02 -6.539784073829650879e-01 2.484173048287630081e-03
-7.819481194019317627e-02 3.255656659603118896e-01 1.458161137998104095e-02
1.670486629009246826e-01 -6.113886237144470215e-01 1.798631856217980385e-03
5.692909285426139832e-02 -5.878314971923828125e-01 1.196237653493881226e-02
1.123241260647773743e-01 -7.138232588768005371e-01 8.000050671398639679e-03
-1.211906522512435913e-01 1.077573895454406738e-01 -1.099231187254190445e-02
-1.518024802207946777e-01 2.188919484615325928e-01 -7.484698668122291565e-03
-7.702776230871677399e-03 -2.078802883625030518e-01 1.588450372219085693e-02
4.310217127203941345e-02 1.589155793190002441e-01 -1.421216316521167755e-02
8.606126159429550171e-02 -2.194737493991851807e-01 1.439011748880147934e-02
-9.958813339471817017e-02 4.749444723129272461e-01 1.257847435772418976e-02
-1.244578659534454346e-01 3.294323384761810303e-01 -1.160339638590812683e-02
7.411609590053558350e-02 -5.088125355541706085e-03 1.412546262145042419e-02
-1.337312348186969757e-02 7.465019822120666504e-02 -1.621337048709392548e-02
8.921023458242416382e-02 -6.527963280677795410e-01 -9.858597069978713989e-03
-3.564376384019851685e-02 5.322989225387573242e-01 1.191824954003095627e-02
-7.309477776288986206e-02 -2.753276228904724121e-01 1.082731317728757858e-02
-7.971916347742080688e-02 4.573519527912139893e-01 1.338634639978408813e-02
4.534730687737464905e-02 -4.099029600620269775e-01 1.463830564171075821e-02
8.074148744344711304e-02 -4.088569581508636475e-01 1.403947919607162476e-02
3.909131139516830444e-02 1.103127151727676392e-01 -1.490300055593252182e-02
2.749712392687797546e-02 1.451596617698669434e-01 1.535417977720499039e-02
9.657590836286544800e-02 -3.146091699600219727e-01 -1.335887983441352844e-02
6.576389819383621216e-02 4.337255954742431641e-01 -2.728234743699431419e-03
3.110441006720066071e-02 -3.596864640712738037e-01 -1.465822756290435791e-02
4.563141986727714539e-02 -2.140086293220520020e-01 1.592290773987770081e-02
-6.155060976743698120e-02 6.023211479187011719e-01 -1.075785607099533081e-02
-1.212304085493087769e-01 5.426089167594909668e-01 -1.039431057870388031e-02
1.611015051603317261e-01 -3.901452422142028809e-01 6.023376714438199997e-03
-6.209789775311946869e-03 -6.527618169784545898e-01 -4.785179160535335541e-03
1.042015291750431061e-02 -4.481880664825439453e-01 -1.298811379820108414e-02
-5.263998731970787048e-02 5.689553022384643555e-01 1.153965294361114502e-02
4.326039180159568787e-02 -7.437489032745361328e-01 6.203959695994853973e-03
6.978593766689300537e-02 -4.254765808582305908e-01 1.420543529093265533e-02
-1.476551592350006104e-01 6.335074901580810547e-01 6.578025408089160919e-03
-1.158175431191921234e-02 2.834252119064331055e-01 -1.498327869921922684e-02
1.709520369768142700e-01 -3.580749332904815674e-01 5.101176211610436440e-04
1.857818663120269775e-02 -4.832698702812194824e-01 -1.263824198395013809e-02
1.523652076721191406e-01 -4.199204146862030029e-01 7.918516173958778381e-03
-3.591553866863250732e-02 -4.828585982322692871e-01 -8.717232383787631989e-03
1.347482055425643921e-01 -5.225865542888641357e-02 -6.865596398711204529e-03
1.484939754009246826e-01 -6.491148471832275391e-02 -2.166631631553173065e-03
1.417175829410552979e-01 -6.717638373374938965e-01 6.561451591551303864e-03
1.620550081133842468e-02 1.922004818916320801e-01 1.534279622137546539e-02
8.930166810750961304e-02 -3.181010782718658447e-01 -1.374463364481925964e-02
-5.358697101473808289e-02 1.946659386157989502e-01 -1.548431068658828735e-02
7.935483008623123169e-02 -4.276764988899230957e-01 1.393503695726394653e-02
9.887870401144027710e-02 -6.012710556387901306e-02 -1.230535283684730530e-02
-5.528720468282699585e-02 6.644064784049987793e-01 8.907779119908809662e-03
1.468181759119033813e-01 -4.013472199440002441e-01 -8.462251164019107819e-03
-2.275365963578224182e-02 -5.816044211387634277e-01 -6.275558378547430038e-03
-1.662565581500530243e-02 9.555369615554809570e-02 -1.616543717682361603e-02
-1.086660623550415039e-01 1.378049850463867188e-01 1.291554793715476990e-02
1.166304340586066246e-03 1.439064741134643555e-01 1.612387597560882568e-02
7.997532188892364502e-02 3.352963924407958984e-01 5.617017857730388641e-03
6.435487419366836548e-02 -1.843518614768981934e-01 1.541095133870840073e-02
5.595069378614425659e-02 -3.331681787967681885e-01 1.519317366182804108e-02
-8.315820246934890747e-02 -1.721462905406951904e-01 -1.133985724300146103e-02
1.572203040122985840e-01 -3.778363466262817383e-01 6.894886493682861328e-03
1.122478842735290527e-01 -4.707054197788238525e-01 1.204379461705684662e-02
-9.357959777116775513e-02 3.093602359294891357e-01 1.404646039009094238e-02
6.846267729997634888e-02 4.265157580375671387e-01 -2.089230110868811607e-03
-9.107391536235809326e-02 -1.499702632427215576e-01 1.134931948035955429e-02
-1.142903864383697510e-01 2.214209139347076416e-01 -1.239248551428318024e-02
1.314699649810791016e-02 -4.592664539813995361e-01 1.341774500906467438e-02
-8.958237618207931519e-02 -8.373102173209190369e-04 -1.308531407266855240e-02
-1.079721823334693909e-01 3.255824148654937744e-01 -1.287190522998571396e-02
1.319648772478103638e-01 -1.089408472180366516e-01 -8.597283624112606049e-03
-4.970232024788856506e-02 2.855832874774932861e-01 -1.514740195125341415e-02
-2.469341084361076355e-02 1.407701969146728516e-01 1.632600650191307068e-02
1.195096448063850403e-01 6.692345440387725830e-02 -7.047910708934068680e-03
-5.107070133090019226e-02 3.736659288406372070e-01 -1.441574003547430038e-02
-3.661332651972770691e-02 -4.504842162132263184e-01 1.028490904718637466e-02
-7.248926162719726562e-02 7.433149218559265137e-01 -6.065933033823966980e-03
-1.869918778538703918e-02 6.503982543945312500e-01 6.901715882122516632e-03
1.133703365921974182e-01 2.386141195893287659e-02 9.524311870336532593e-03
-5.289621278643608093e-02 -5.027008056640625000e-01 5.318670067936182022e-03
1.423524469137191772e-01 1.190320588648319244e-03 -4.259983252268284559e-04
-1.295603215694427490e-01 4.549725055694580078e-01 -1.065773796290159225e-02
-5.566803365945816040e-02 4.835652112960815430e-01 -1.302401069551706314e-02
6.618615239858627319e-02 -6.926884651184082031e-01 -8.817710913717746735e-03
6.727631390094757080e-02 1.518598794937133789e-01 -1.256755553185939789e-02
-5.043039098381996155e-02 3.490764498710632324e-01 -1.465355604887008667e-02
-2.517985738813877106e-02 7.428719848394393921e-02 -1.614384353160858154e-02
2.368762530386447906e-02 -4.432925283908843994e-01 -1.347261853516101837e-02
1.350018084049224854e-01 -5.851243138313293457e-01 -8.541972376406192780e-03
2.345708943903446198e-02 5.691894292831420898e-01 -4.809102509170770645e-03
1.404296308755874634e-01 -5.618236064910888672e-01 -8.272052742540836334e-03
-1.409835964441299438e-01 3.947000503540039062e-01 -9.807741269469261169e-03
5.561788380146026611e-02 -2.620768249034881592e-01 -1.515395287424325943e-02
-1.099190562963485718e-01 6.566007733345031738e-01 -8.884159848093986511e-03
-9.164495021104812622e-02 7.692166566848754883e-01 -5.004744045436382294e-03
1.151930987834930420e-01 -3.664607703685760498e-01 1.234755292534828186e-02
1.067101359367370605e-01 -5.868949890136718750e-01 -1.054322905838489532e-02
1.119096726179122925e-01 5.762171000242233276e-02 -8.816056884825229645e-03
-2.172558568418025970e-03 -6.752939820289611816e-01 -3.800567705184221268e-03
-8.933638781309127808e-02 3.361038863658905029e-01 1.411651819944381714e-02
1.067800968885421753e-01 -4.743307530879974365e-01 1.235100999474525452e-02
-6.533250212669372559e-02 9.948908537626266479e-02 1.549134030938148499e-02
-1.119676083326339722e-01 5.765999555587768555e-01 -1.042044535279273987e-02
-1.296342611312866211e-01 1.563880741596221924e-01 -1.040157489478588104e-02
-8.991041779518127441e-02 5.472638010978698730e-01 -1.169743202626705170e-02
9.139571338891983032e-02 -6.674827933311462402e-01 9.998908266425132751e-03
2.024878188967704773e-02 6.096317172050476074e-01 4.862348141614347696e-04
-9.685167670249938965e-02 -1.728475093841552734e-01 1.010346598923206329e-02
-3.249887004494667053e-02 -3.478859066963195801e-01 1.306537818163633347e-02
-3.978192061185836792e-02 4.697779119014739990e-01 1.325368788093328476e-02
-7.924266904592514038e-02 7.749245166778564453e-01 -4.321370273828506470e-03
-1.045170575380325317e-01 -1.749124825000762939e-01 -8.284872397780418396e-03
-8.769406005740165710e-03 -4.311067759990692139e-01 1.295207720249891281e-02
-3.058098815381526947e-02 9.170984849333763123e-03 -1.601550169289112091e-02
-3.972412645816802979e-02 -4.156715422868728638e-02 -1.559287495911121368e-02
-2.595745958387851715e-03 -2.624831795692443848e-01 -1.508661080151796341e-02
1.206479147076606750e-01 -2.028515934944152832e-01 1.149129867553710938e-02
6.823793798685073853e-02 -3.639421463012695312e-01 1.472596637904644012e-02
-7.870939373970031738e-02 3.516533970832824707e-01 -1.412755995988845825e-02
1.455474048852920532e-01 -4.386993944644927979e-01 8.961298502981662750e-03
1.526802033185958862e-02 4.279573261737823486e-02 1.636446826159954071e-02
-9.866693615913391113e-02 2.545472085475921631e-01 1.390032004565000534e-02
-1.253602653741836548e-01 7.126295566558837891e-01 6.520784460008144379e-03
-1.215270310640335083e-01 2.269099652767181396e-01 1.211494114249944687e-02
7.845271378755569458e-02 -2.896482646465301514e-01 -1.432702969759702682e-02
-1.631860733032226562e-01 3.535849452018737793e-01 -6.169620435684919357e-03
4.129383713006973267e-02 4.970786273479461670e-01 -5.584628786891698837e-03
-1.084250584244728088e-01 3.534304797649383545e-01 1.305360719561576843e-02
1.608278006315231323e-01 -3.665077686309814453e-01 5.962074734270572662e-03
3.815814852714538574e-04 4.567649662494659424e-01 -1.178970374166965485e-02
1.673204749822616577e-01 -4.332875609397888184e-01 -3.922805190086364746e-03
1.091218367218971252e-02 -4.016974866390228271e-01 -1.376306265592575073e-02
5.851464346051216125e-02 1.168138310313224792e-01 -1.372515689581632614e-02
2.856928668916225433e-02 -3.254986703395843506e-01 -1.497530844062566757e-02
3.380704671144485474e-02 4.385356307029724121e-01 -9.390064515173435211e-03
-1.524826437234878540e-01 3.385399580001831055e-01 -8.215742185711860657e-03
-1.688993275165557861e-01 4.943366944789886475e-01 -4.524942487478256226e-03
-4.119729250669479370e-02 4.368741065263748169e-04 -1.571939885616302490e-02
1.634626416489481926e-03 3.558578193187713623e-01 1.383256167173385620e-02
8.960520476102828979e-02 2.223516404628753662e-01 8.353786543011665344e-03
-9.303586184978485107e-02 -3.017753064632415771e-01 6.548644043505191803e-03
1.548389792442321777e-01 -1.255348324775695801e-01 -1.865148078650236130e-03
-1.768547892570495605e-01 4.007907509803771973e-01 -3.722234105225652456e-04
6.814665347337722778e-02 -4.948526322841644287e-01 1.346980035305023193e-02
-6.114850938320159912e-02 1.112057045102119446e-01 1.566769555211067200e-02
1.007443517446517944e-01 1.105985417962074280e-01 9.608660824596881866e-03
-7.397571951150894165e-02 7.370696067810058594e-01 6.541230250149965286e-03
-1.365486830472946167e-01 5.590332150459289551e-01 9.198163636028766632e-03
-4.396770521998405457e-02 -4.101970791816711426e-01 1.066067256033420563e-02
-1.674508675932884216e-02 -3.129499554634094238e-01 -1.400158274918794632e-02
1.005772054195404053e-01 -3.952597975730895996e-01 -1.282125059515237808e-02
1.328335106372833252e-01 -7.296769618988037109e-01 -5.316699855029582977e-03
-4.228383302688598633e-02 4.907824099063873291e-01 1.293113268911838531e-02
1.510729193687438965e-01 -3.354185223579406738e-01 -7.604086771607398987e-03
-3.109335899353027344e-02 5.803041458129882812e-01 1.050851773470640182e-02
-1.539661884307861328e-01 6.125318408012390137e-01 6.121428217738866806e-03
3.489290177822113037e-02 4.540956020355224609e-01 -8.712295442819595337e-03
-1.662999093532562256e-01 4.470957219600677490e-01 5.823141895234584808e-03
-1.146863251924514771e-01 -1.931634545326232910e-01 -5.261565092951059341e-03
1.463346332311630249e-01 -2.027972936630249023e-01 7.534199859946966171e-03
